ply
format ascii 1.0
comment Created by CloudCompare v2.11.3 (Anoia)
comment Created 4/24/25 11:24 AM
obj_info Generated by CloudCompare!
element vertex 1492
property float x
property float y
property float z
end_header
0.0245092 0.0406191 -0.00557292 
0.0215717 0.0401714 -0.00970048 
0.020848 0.0400652 -0.0117024 
0.0197994 0.0399634 -0.0167042 
0.0187974 0.0398349 -0.0187285 
0.0170867 0.039703 -0.0206999 
0.0084074 0.123136 -0.0106652 
-0.0521483 0.153554 0.0122178 
0.0221547 0.0979182 -0.0216266 
-0.0697681 0.156742 -0.0499137 
-0.0908772 0.119982 0.00630567 
-0.0630191 0.169374 -0.0476038 
-0.0784525 0.0962411 -0.0105211 
-0.0261224 0.165258 -0.0166522 
0.0443577 0.0547836 -0.00632411 
-0.00922314 0.174168 -0.0285672 
-0.0619528 0.15527 -0.030594 
-0.0356336 0.11996 -0.0108661 
-0.0477042 0.0664777 -0.0141832 
-0.0388763 0.107081 -0.0200218 
-0.0518036 0.0898543 -0.0220029 
-0.0491177 0.138604 0.00740359 
-0.0620463 0.158428 -0.0205873 
-0.0683202 0.166619 -0.0540065 
-0.0628199 0.164682 -0.0345962 
-0.0498078 0.0898419 -0.0216876 
0.0406669 0.102735 -0.000789188 
-0.015069 0.117815 -0.0147928 
-0.065807 0.090969 -0.0181206 
-0.0798492 0.140347 -0.0037915 
-0.0742949 0.17555 -0.0422185 
-0.0626761 0.177191 -0.057627 
-0.00957846 0.178815 -0.0287373 
0.0402454 0.0843611 -0.0117637 
-0.0198038 0.0827175 -0.0390158 
-0.0512049 0.147808 0.0143958 
-0.0668226 0.0923514 -0.017257 
-0.0637771 0.0824308 -0.0191299 
0.027859 0.114683 -0.0075901 
-0.0890662 0.123985 0.0032876 
-0.0366237 0.123115 -0.00817194 
-0.0658232 0.100991 -0.0166158 
-0.0791607 0.170809 -0.0419883 
-0.0935168 0.125484 0.0132627 
-0.00687638 0.105938 -0.022783 
-0.0286428 0.107004 -0.0213195 
-0.0936513 0.125496 0.0142597 
-0.0664605 0.152204 -0.0437352 
-0.00509715 0.039098 -0.012386 
0.00465961 0.0959425 -0.0295932 
-0.0378236 0.0914714 -0.0236656 
0.0454962 0.0443878 0.000424365 
0.0376515 0.0947835 -0.010301 
0.0241599 0.0418198 -0.00678118 
0.00241269 0.0347278 -0.0230504 
-0.0528711 0.15259 0.0147483 
-0.0307989 0.0833965 -0.031578 
0.0312312 0.117425 0.00123717 
0.0222403 0.0416489 -0.00972259 
0.0218834 0.0415901 -0.0107198 
-0.0719363 0.129668 -0.0086833 
-0.0530069 0.153493 0.0132253 
0.0216799 0.0415358 -0.0117265 
0.0214529 0.0415824 -0.013701 
0.0213104 0.0415776 -0.0147 
0.0195943 0.041435 -0.0196763 
-0.0516192 0.112658 -0.0171697 
0.0185142 0.0412688 -0.0207398 
-0.0148841 0.0959887 -0.031739 
0.032428 0.0625798 -0.0177725 
-0.092388 0.120024 0.00928585 
-0.0631168 0.15992 -0.0455978 
-0.0466248 0.0577591 -0.0115398 
-0.0631574 0.159924 -0.0465929 
-0.0633873 0.169402 -0.0465883 
-0.0632263 0.153648 -0.0346156 
-0.0160151 0.185636 -0.0207096 
-0.0669549 0.160975 -0.0568649 
0.0173308 0.0566344 -0.0283721 
-0.0336457 0.0562895 -0.0107616 
-0.0142621 0.120334 -0.0114431 
-0.0874242 0.111776 0.00733879 
-0.0863384 0.102179 0.00442425 
-0.000697034 0.0626894 -0.03411 
-0.0744235 0.152695 -0.0268913 
0.005339 0.0971934 -0.026912 
-0.0908268 0.137853 0.0181986 
-0.0620328 0.156862 -0.0185851 
-0.00888297 0.175714 -0.027834 
-0.0614858 0.175719 -0.0606762 
-0.0625154 0.177257 -0.0583926 
-0.0483087 0.135537 0.00740851 
-0.0627671 0.15529 -0.013592 
-0.0163529 0.16023 -0.0109161 
-0.0878008 0.119885 0.00028492 
-0.0770465 0.161776 -0.0174081 
-0.0533378 0.162724 0.0010506 
-0.0457595 0.0797224 -0.0196258 
-0.0799897 0.135372 -0.00407226 
0.0329815 0.112282 -0.00498623 
-0.053326 0.162717 0.00204741 
-0.016261 0.181575 -0.0262548 
-0.0746813 0.077485 -0.0103851 
-0.0151984 0.171233 -0.0237028 
-0.017311 0.117579 -0.0145168 
-0.0614844 0.158425 -0.031588 
-0.0117695 0.075665 -0.0382916 
-0.0718999 0.113582 -0.00821597 
-0.0417827 0.0840916 -0.0212196 
0.0491492 0.0460297 0.00132033 
-0.061699 0.0599431 0.00295203 
0.0222263 0.0790988 -0.0263649 
0.0482587 0.0460086 0.000382582 
0.0351631 0.0941496 -0.0136388 
-0.0879266 0.10368 0.0183585 
0.0470243 0.0458757 -0.000608958 
0.0305902 0.0996469 -0.0155371 
0.0314256 0.0991914 -0.015062 
-0.039166 0.0355671 -0.0293815 
0.0239407 0.0433254 -0.00969837 
0.0220365 0.0430228 -0.0147268 
0.0210931 0.0429808 -0.0187308 
-0.0788672 0.111379 -0.00271807 
-0.0345377 0.0353482 -0.0311793 
-0.0690298 0.155601 0.00744971 
0.0418115 0.0872841 -0.00879032 
-0.0633619 0.165109 -0.0324564 
-0.0748894 0.152721 -0.0218881 
-0.0832173 0.13898 0.000315163 
-0.00645384 0.126073 -0.0076982 
-0.0527211 0.0709092 -0.0154358 
0.00738229 0.0448872 -0.0251556 
-0.0510928 0.12386 -0.00885828 
0.0289187 0.0580129 -0.0187889 
-0.00912597 0.168128 -0.0227626 
-0.0619039 0.16157 -0.0305885 
-0.0338857 0.12324 -0.00632922 
-0.00951883 0.17115 -0.0217635 
-0.0101059 0.171125 -0.0207965 
-0.0116015 0.0406252 -0.0263738 
-0.0787666 0.165266 -0.0299591 
0.0169426 0.11422 -0.015094 
-0.0113718 0.177173 -0.0236196 
0.0412738 0.0872408 -0.00977382 
-0.0744971 0.176396 -0.0436946 
-0.0850528 0.0993835 -0.000573805 
0.0208421 0.0882147 -0.0254487 
0.0132183 0.0794258 -0.0310561 
0.045522 0.0805737 0.00219452 
-0.00980958 0.166665 -0.0207735 
-0.00705924 0.127865 -0.00358478 
-0.0336047 0.0695556 -0.0194645 
-0.063085 0.150521 -0.026598 
0.03984 0.106962 0.00517391 
-0.0326422 0.080708 -0.0295257 
-0.0688721 0.0369953 0.0119906 
-0.0643109 0.169365 -0.0428818 
-0.0266897 0.105947 -0.0223991 
-0.0633419 0.155193 -0.0376165 
-0.0845132 0.150109 0.0051703 
-0.0317158 0.0383538 -0.00403424 
-0.0629342 0.109643 -0.0151294 
0.0333786 0.0476367 -0.00619535 
-0.0530502 0.151987 0.0175947 
-0.0343438 0.0384811 -0.00836679 
0.00340705 0.0404653 -0.0241388 
0.0498828 0.0474685 0.000307011 
0.0488619 0.047436 -0.000620948 
0.0464132 0.0472054 -0.00271728 
0.0445162 0.087501 -0.00181141 
0.0272261 0.0451183 -0.00768323 
-0.0515389 0.0417461 -0.0105815 
-0.0724407 0.178857 -0.0487083 
0.0264125 0.0450979 -0.0096842 
0.0260285 0.0450625 -0.0106845 
0.0242611 0.0448626 -0.0136813 
0.00521659 0.0824462 -0.0340286 
0.0225489 0.0444802 -0.0157666 
0.0221671 0.0444704 -0.016762 
0.0217692 0.0444645 -0.0177596 
0.0214237 0.0444841 -0.0187153 
0.0184196 0.0442138 -0.0226321 
0.0153369 0.0552331 -0.0286287 
-0.0331866 0.15511 0.000984746 
0.050676 0.0693821 0.00244948 
-0.0628659 0.161473 -0.0525859 
-0.022965 0.108799 -0.0212234 
-0.0483263 0.149906 -0.00403153 
-0.00189958 0.130575 0.00323807 
-0.0905968 0.140629 0.0221693 
-0.0377619 0.0480619 -0.0149351 
-0.0342458 0.127284 0.0102001 
-0.0919111 0.120015 0.00829626 
-0.0625045 0.160053 -0.0215634 
-0.0746919 0.0745094 -0.0088781 
-0.0619246 0.161563 -0.0295917 
-0.0266954 0.125077 0.00273937 
-0.0613803 0.17096 -0.0575947 
-0.0636754 0.156752 -0.0416076 
-0.062693 0.156802 -0.0376031 
-0.0631402 0.158352 -0.0425984 
-0.0624126 0.150651 -0.0115734 
-0.0332242 0.152554 -0.00262082 
-0.0636657 0.175908 -0.0542108 
-0.0886021 0.087516 0.0174642 
-0.0660426 0.171124 -0.0420386 
-0.0746657 0.154121 -0.0198989 
-0.0113061 0.169739 -0.0249506 
-0.0512719 0.127504 -0.00467957 
-0.0546819 0.0486825 0.0116705 
-0.0819198 0.126566 -0.00507678 
-0.022958 0.166842 -0.0105567 
0.0524062 0.0491022 0.00128138 
-0.0591948 0.0603156 -0.00052226 
0.0514482 0.0490026 0.000289284 
0.0504722 0.048918 -0.000684915 
-0.0321404 0.106348 -0.0206098 
-0.0852421 0.0804972 0.00551565 
0.0484396 0.0486951 -0.00266239 
0.0280707 0.046664 -0.00969251 
-0.0616784 0.0692367 -0.0132074 
-0.0784995 0.162482 -0.0259435 
0.046214 0.0637709 -0.0019104 
-0.0862013 0.10903 0.0113533 
0.0277468 0.0465681 -0.0107176 
0.0272051 0.0465425 -0.0127095 
0.0217639 0.0458254 -0.0188683 
-0.0393167 0.0432044 -0.0243027 
0.0268226 0.046511 -0.0137061 
-0.0504978 0.159322 0.00851944 
0.0203688 0.0459169 -0.020834 
0.0351088 0.100136 -0.012024 
0.00442197 0.11861 -0.0157775 
-0.0540072 0.144242 -0.000990452 
-0.0241067 0.108647 -0.0210644 
-0.0915859 0.128175 0.00825933 
0.0338754 0.0626989 -0.015804 
-0.0625301 0.147537 -0.0105732 
-0.0460801 0.153165 -0.0063697 
-0.0399669 0.0343914 -0.00210399 
-0.0646486 0.156189 0.0162701 
-0.0636646 0.15831 -0.045603 
-0.0620187 0.175667 -0.057604 
-0.0086058 0.172644 -0.0268228 
-0.0849795 0.0952966 -0.00257745 
-0.0809104 0.126584 -0.00546143 
-0.0647404 0.156683 -0.0475224 
0.0319954 0.11684 0.00152318 
-0.0277917 0.0810724 -0.036339 
-0.0838817 0.150077 0.00420446 
-0.0302503 0.17123 -0.00702025 
-0.094215 0.120106 0.0172864 
-0.0217088 0.114301 -0.017023 
-0.0621937 0.156854 -0.0175927 
-0.0517714 0.14934 0.0163945 
-0.0442869 0.166804 -0.00853834 
-0.0715633 0.170815 -0.0500445 
-0.0631749 0.149 -0.0205832 
-0.0547371 0.114833 -0.0154193 
-0.0497701 0.140145 0.0153991 
-0.0448348 0.0942101 -0.0220316 
0.0432229 0.0888059 -0.00480108 
-0.0920088 0.118668 0.00830639 
0.0496613 0.0501912 -0.00270335 
-0.0427782 0.0841106 -0.0212812 
0.0482309 0.0500295 -0.00369862 
0.0115331 0.101889 -0.0218781 
-0.00582898 0.0896214 -0.0360418 
0.0293799 0.0892796 -0.0205263 
0.0296733 0.0481683 -0.00874324 
-0.0455234 0.131922 0.0119481 
-0.0388285 0.0339925 0.000319116 
0.0290556 0.0480892 -0.0107335 
-0.0777926 0.167262 -0.0295303 
0.0287818 0.0480764 -0.0117305 
0.0285217 0.0480557 -0.0127278 
0.0282711 0.0480264 -0.0137299 
-0.0876158 0.136354 0.00421533 
0.0279061 0.0479696 -0.0147397 
0.0276827 0.0480336 -0.0156964 
0.0271939 0.0479684 -0.0167032 
0.0233928 0.0475951 -0.0196868 
0.0346496 0.0972102 -0.0129196 
-0.0118269 0.118985 -0.0140536 
-0.0526322 0.0603614 -0.00917272 
-0.0753578 0.0671035 0.0137678 
-0.0626481 0.167836 -0.0465871 
-0.0627949 0.167828 -0.0455908 
-0.042812 0.14778 0.00347562 
-0.0622212 0.169401 -0.0515858 
-0.0268485 0.0931277 -0.028596 
-0.00874857 0.0727984 -0.0375275 
0.0426227 0.0691122 -0.00279622 
-0.0115776 0.0962625 -0.032007 
-0.062107 0.163118 -0.0365927 
-0.0334767 0.152548 -0.00159465 
-0.0478122 0.134031 0.00640478 
-0.0614986 0.158424 -0.0305881 
-0.0646289 0.156694 -0.0465976 
0.0330143 0.106332 -0.0106209 
-0.0424386 0.147805 0.00141712 
-0.0775236 0.155819 0.0175602 
-0.0774728 0.155537 -0.0149084 
-0.0604782 0.144516 -0.00363507 
-0.0465876 0.132486 0.00741919 
-0.0434333 0.15941 0.00551467 
-0.0499851 0.135487 0.00142097 
0.0274801 0.0445395 -0.0065618 
-0.0495672 0.135498 0.00241956 
-0.032702 0.0694797 -0.021456 
-0.0781065 0.0948585 -0.0115273 
0.0278721 0.0522836 -0.0197543 
0.00628325 0.0668147 -0.0324472 
0.0317623 0.0938577 -0.0173357 
-0.0126085 0.0434839 -0.0264186 
0.00237959 0.0976208 -0.0273765 
-0.0384872 0.0337149 -0.0296051 
-0.0351305 0.127632 0.00987733 
0.0342448 0.0842103 -0.0184253 
0.0315596 0.0497964 -0.00774264 
-0.00487539 0.105927 -0.0225105 
0.0309277 0.0497348 -0.00874 
0.0300872 0.0497043 -0.0117138 
0.029585 0.0495591 -0.0127459 
0.00164525 0.0348132 0.00406568 
-0.0588961 0.106893 -0.0176578 
0.0293305 0.049536 -0.0137505 
0.017067 0.127696 0.00312982 
-0.0746801 0.157704 -0.00556618 
-0.0777094 0.170825 -0.0439812 
0.0291366 0.0495584 -0.0147305 
0.0260218 0.0493062 -0.0196675 
0.0333583 0.0505553 -0.00686804 
0.0322641 0.11194 -0.00663069 
-0.0197872 0.118912 -0.0118682 
-0.0631137 0.14437 -0.00863045 
0.0260624 0.113339 -0.0101501 
-0.0788399 0.114858 -0.00418456 
0.0220864 0.122759 -0.00230579 
-0.0866591 0.107689 0.0123597 
-0.0906194 0.139243 0.0211829 
0.00734362 0.0524803 -0.0298755 
-0.0491191 0.159098 -0.00622225 
-0.0610973 0.169393 -0.058599 
-0.00766666 0.0527037 -0.0328501 
-0.0385489 0.119476 -0.0123722 
-0.062524 0.167829 -0.0475902 
-0.049274 0.1386 0.00640083 
-0.0086601 0.174145 -0.0268323 
-0.0611161 0.170955 -0.0586033 
-0.0639569 0.158297 -0.0475943 
-0.0789879 0.13894 -0.00474105 
0.00330662 0.0597508 -0.0323981 
0.0103564 0.0538895 -0.0297771 
0.0425653 0.0859482 -0.00679004 
-0.0391114 0.149509 -0.00165293 
-0.0497918 0.143216 0.0113941 
-0.0731244 0.174613 -0.0403365 
-0.0692156 0.0343564 -0.00463486 
-0.0674148 0.142782 -0.0112266 
-0.06762 0.17339 -0.0440641 
-0.0487556 0.137056 0.00741027 
0.00912605 0.108716 -0.0196568 
-0.0720422 0.15541 -0.0389078 
-0.0416396 0.0548863 -0.0113812 
-0.050582 0.13546 0.000440434 
-0.0871174 0.110466 0.0103621 
-0.0614723 0.15843 -0.0295877 
0.0158804 0.124131 -0.00578699 
-0.0777024 0.176292 -0.0501047 
-0.0291426 0.042089 -0.0296009 
-0.0867734 0.123909 -0.00174219 
-0.0131928 0.11434 -0.0171133 
0.0549839 0.0534895 0.00121219 
-0.065886 0.15405 -0.00011759 
0.0514754 0.0531199 -0.00283685 
0.0063341 0.0539359 -0.0303914 
-0.00559979 0.114688 -0.0175182 
-0.0593991 0.0472653 0.0079341 
-0.0776115 0.15005 -0.0049035 
-0.0667255 0.178008 -0.0524224 
-0.0907853 0.117276 0.00630342 
0.0316471 0.05126 -0.00972402 
0.0312336 0.051167 -0.0107736 
0.0301658 0.0510827 -0.0137422 
-0.0538286 0.0338166 -0.0117099 
0.0294314 0.0509988 -0.0157519 
-0.0149904 0.165173 -0.0188028 
-0.0133702 0.0343611 -0.0190243 
0.0285441 0.0509095 -0.0177614 
0.0271973 0.0508207 -0.0197147 
-0.0154402 0.120098 -0.0111735 
0.0330707 0.110451 -0.00703014 
-0.0452756 0.131436 0.0105618 
0.049575 0.0693171 0.00251779 
-0.0623783 0.167824 -0.0485899 
-0.0698932 0.120907 -0.00884856 
-0.0623736 0.164689 -0.0415928 
-0.0624754 0.163097 -0.0475912 
-0.0869607 0.111738 0.00633151 
-0.0607324 0.0592584 0.00571875 
-0.0558871 0.108356 -0.0181276 
-0.0747378 0.0687745 0.000531905 
-0.0609822 0.170956 -0.0597011 
-0.0121936 0.163667 -0.0136225 
-0.0483417 0.137106 0.010396 
0.0313289 0.0554154 -0.0147753 
-0.0672076 0.171872 -0.0410051 
-0.0475913 0.133999 0.00741747 
-0.00244825 0.112634 -0.0193375 
-0.0391911 0.149452 0.000405422 
-0.0372368 0.172627 -0.0118528 
0.0410638 0.0928718 -0.0077952 
-0.00459579 0.039143 -0.025596 
-0.0597327 0.156046 0.0093301 
-0.0643301 0.156694 -0.0446094 
-0.0396128 0.0492137 -0.0115104 
-0.0761778 0.148614 -0.0108668 
-0.0309118 0.10664 -0.0209245 
-0.0271171 0.059077 -0.028426 
0.0424576 0.0845381 -0.00679736 
-0.0293056 0.125075 0.00323421 
-0.0731478 0.0644323 0.00940567 
-0.0628269 0.1502 -0.00476792 
-0.0159384 0.124168 -0.00545234 
-0.0136298 0.0943834 -0.0340901 
-0.074679 0.177203 -0.0452121 
-0.0768656 0.120803 -0.0071099 
-0.0895362 0.119938 0.00329723 
-0.0732751 0.148715 -0.0303812 
0.00377856 0.127353 -0.00517835 
0.016843 0.101962 -0.021958 
-0.0324286 0.126663 0.0108668 
0.0523694 0.0545712 -0.00274385 
-0.0119972 0.115638 -0.0165051 
-0.0942867 0.122796 0.0162787 
0.00603967 0.0344425 -0.0152712 
-0.0916761 0.122705 0.00729331 
0.0333333 0.0528011 -0.00875184 
0.0315143 0.0525771 -0.0117816 
0.0202805 0.12337 -0.00295598 
0.0308153 0.0525508 -0.0137522 
-0.062763 0.149042 -0.0175788 
0.0303873 0.0525299 -0.0147333 
0.0299175 0.0524736 -0.0157475 
-0.00157082 0.0341515 -0.0183868 
0.0295344 0.0524338 -0.0167463 
0.0290611 0.0523826 -0.0177704 
0.0285377 0.0523356 -0.0187697 
-0.0386685 0.0621637 -0.0127302 
-0.0140717 0.118746 -0.0137718 
-0.0907186 0.113289 0.0113419 
-0.0151271 0.118705 -0.0137294 
-0.0297618 0.107877 -0.0202294 
-0.0320031 0.0370471 -0.0177181 
-0.0498819 0.105595 -0.0195612 
0.0111597 0.124256 -0.00791398 
-0.0678768 0.1616 -0.0125361 
0.00739517 0.116252 -0.017256 
-0.0396346 0.151103 -0.0056598 
-0.0620392 0.152203 -0.0175795 
-0.0273383 0.17123 -0.0098418 
-0.0659757 0.132606 -0.00839654 
-0.0629538 0.164686 -0.0335942 
-0.0946899 0.124172 0.0202666 
-0.008712 0.171156 -0.0257232 
0.0363865 0.0713868 -0.0138007 
-0.0638693 0.170945 -0.0476012 
-0.0480746 0.134034 0.00539884 
-0.0448725 0.105637 -0.0203982 
-0.043534 0.0422491 -0.0203181 
-0.0640892 0.172567 -0.049571 
0.0354946 0.0642547 -0.0137843 
-0.0640597 0.156709 -0.043612 
0.00279805 0.0339767 -0.0211497 
-0.0813623 0.104616 -0.00457868 
-0.0608886 0.105445 -0.0177606 
0.00293826 0.0356401 -0.0151121 
-0.0371849 0.0430027 -0.0273252 
-0.0624074 0.1491 -0.0095736 
-0.0930586 0.122743 0.0102788 
-0.0623027 0.152202 -0.0135791 
-0.0144336 0.120974 -0.0101151 
-0.0280973 0.16079 -0.0140776 
-0.00281596 0.0896133 -0.0355773 
-0.0132125 0.168083 -0.022507 
0.0360791 0.111295 0.00152105 
-0.0505803 0.0502828 -0.00813802 
-0.0689131 0.06155 0.0163724 
-0.0600247 0.0335577 0.00903367 
-0.0476672 0.0405803 -0.0117113 
-0.0367004 0.0680804 -0.0157124 
0.0423783 0.0676875 -0.00279832 
0.0433489 0.0761902 -0.00378764 
0.054626 0.0562289 -0.00078591 
-0.0534525 0.116245 -0.0149003 
-0.0767078 0.176155 -0.0445645 
0.053783 0.0561466 -0.00178141 
0.0528986 0.056075 -0.00272531 
-0.0346229 0.116833 -0.0136016 
-0.0471272 0.159118 -0.00765489 
0.0395569 0.0702481 -0.0107925 
-0.0887889 0.117194 0.003272 
0.0196586 0.112307 -0.0150514 
0.0318353 0.0540522 -0.0127622 
-0.0303394 0.0344325 -0.0205625 
0.0314991 0.054058 -0.0137198 
0.0302987 0.0539206 -0.0157566 
-0.031661 0.0351392 -0.0196159 
-0.0710495 0.141325 -0.00813095 
0.0297243 0.0538559 -0.0167895 
0.0278843 0.0536982 -0.0197695 
0.0265706 0.0535806 -0.0207269 
-0.0248096 0.123255 -0.00440954 
0.00646008 0.118492 -0.0156628 
-0.0402074 0.168164 -0.0113973 
-0.00874782 0.125791 -0.00734235 
0.0425976 0.0887597 -0.00680771 
0.0203197 0.0664896 -0.0280597 
-0.0197211 0.109971 -0.0204733 
-0.0623557 0.152158 -0.0235797 
-0.0617624 0.0810326 -0.0192317 
0.0100342 0.126121 -0.00591235 
-0.0903295 0.150229 0.0211233 
-0.0652464 0.154114 0.00157024 
-0.0649244 0.113824 -0.0119395 
-0.0635915 0.172518 -0.0506017 
0.0258821 0.0794179 -0.0243188 
-0.0882052 0.0955366 0.00643448 
-0.0732036 0.147141 -0.0198634 
0.01519 0.127729 0.000331934 
-0.0560997 0.155362 -0.00113519 
-0.0759561 0.112612 -0.00567952 
-0.062341 0.164692 -0.0435908 
0.0179164 0.102978 -0.02104 
-0.0788582 0.171448 -0.0399026 
-0.0820994 0.104661 -0.00359906 
-0.0867701 0.113047 0.00428618 
-0.0637344 0.0736795 -0.0161836 
-0.0624427 0.149095 -0.00857615 
0.0302998 0.0694384 -0.019812 
-0.0937199 0.12277 0.0132819 
0.0382667 0.0885646 -0.0138289 
-0.0660124 0.176151 -0.0507054 
-0.0586426 0.0335837 0.0110854 
0.0236771 0.0956901 -0.0213272 
0.045657 0.07639 0.00319799 
-0.0846694 0.0831371 0.000497005 
-0.0042883 0.0999626 -0.0238822 
-0.0579761 0.145744 -0.00191597 
-0.0842393 0.107513 0.00238784 
0.00388853 0.130454 0.00153712 
-0.0743566 0.148587 -0.0198592 
-0.00269975 0.109146 -0.0216168 
-0.0839267 0.145982 0.00417548 
-0.0311396 0.166714 -0.0162904 
0.0366972 0.106807 -0.00382741 
-0.0358756 0.107103 -0.0202685 
0.0542703 0.0575789 -0.00178727 
-0.0456556 0.126096 -0.00729728 
-0.0312043 0.0422041 -0.0297469 
-0.0676415 0.155906 0.0108585 
0.029856 0.0552774 -0.0168073 
-0.0743879 0.143042 -0.00684484 
0.0275533 0.0550749 -0.019815 
-0.0770308 0.167319 -0.027484 
-0.0822314 0.0842513 -0.00555381 
0.0240844 0.0547426 -0.0237664 
-0.0201946 0.0918367 -0.0355405 
0.0299199 0.11779 -0.000781916 
0.00748229 0.118415 -0.0155852 
-0.0855476 0.136296 0.00125685 
-0.0149026 0.105901 -0.0222117 
-0.062275 0.152174 -0.0245791 
-0.0367401 0.0754253 -0.0187666 
0.0390548 0.0884875 -0.0128108 
-0.0427423 0.0768225 -0.0188988 
-0.0627318 0.159944 -0.0435973 
0.00322397 0.0768846 -0.0351052 
-0.0856264 0.110331 0.00634317 
-0.049383 0.140141 0.0133936 
-0.0116307 0.0337076 -0.023716 
-0.0889655 0.0969901 0.0204055 
-0.0825014 0.0978733 -0.00561152 
-0.0629263 0.108221 -0.0156274 
-0.0718123 0.0950995 -0.0154446 
-0.0206243 0.0436469 -0.0283402 
-0.0685283 0.0434892 0.00727271 
-0.0625369 0.149102 -0.00757295 
-0.0817139 0.108721 -0.00159489 
-0.0466152 0.145766 -0.000178732 
-0.0625159 0.163122 -0.0305925 
0.0386236 0.0898511 -0.0127692 
-0.0631142 0.178334 -0.0583576 
-0.00172768 0.0683482 -0.0343533 
-0.0408691 0.158042 0.00401656 
-0.021174 0.184521 -0.0131308 
0.0553821 0.0590684 -0.000816519 
0.0282746 0.0494546 -0.0167442 
-0.0518774 0.104165 -0.0200373 
-0.0427644 0.0812202 -0.0203472 
-0.00170857 0.0641356 -0.0344906 
-0.029592 0.0522946 -0.0203629 
-0.0623619 0.166253 -0.047591 
0.0381226 0.0574698 -0.00591549 
-0.039457 0.0403768 -0.0273046 
0.0372794 0.0574491 -0.00767997 
0.00369465 0.0390982 -0.00688719 
0.0360298 0.0573371 -0.00970954 
0.0319374 0.0568888 -0.0147656 
0.0308479 0.0567691 -0.0158074 
-0.0434452 0.120253 -0.0131867 
0.030053 0.0567138 -0.0167759 
0.0139221 0.0913152 -0.0287052 
0.0436968 0.0818627 -0.00278544 
-0.0520076 0.145723 -0.00116844 
0.0276189 0.0564968 -0.0197599 
0.0266313 0.0563972 -0.0207832 
0.0239341 0.0561524 -0.0247597 
-0.0526765 0.0514226 0.0124143 
0.0237606 0.105983 -0.0162548 
0.0102946 0.102931 -0.0208353 
0.00312416 0.107287 -0.0203844 
-0.034174 0.107559 -0.0198979 
-0.0829803 0.153189 0.00837374 
-0.0253936 0.106122 -0.0223873 
-0.0623817 0.147548 -0.00757469 
-0.0668021 0.0909191 -0.0174744 
-0.0288355 0.125617 0.00924976 
-0.0860649 0.0994533 0.00140442 
-0.00311195 0.130927 0.00709886 
-0.0853556 0.095327 -0.00158429 
0.0280633 0.100998 -0.0169482 
0.0124979 0.0363631 -0.0219171 
0.00821621 0.124741 -0.00840458 
-0.0477776 0.0826677 -0.0211258 
-0.0629712 0.145905 -0.0115915 
-0.0091676 0.171172 -0.0227371 
-0.0815177 0.106 -0.00361682 
0.0173872 0.0432828 -0.0228623 
-0.0623412 0.156794 -0.0356173 
-0.0622512 0.175627 -0.0566298 
0.0295964 0.0580473 -0.0178274 
-0.0231675 0.184436 -0.0160624 
-0.0493632 0.1301 -0.00139208 
-0.0875073 0.0954698 0.00341799 
-0.010458 0.0953808 -0.0330949 
-0.0621215 0.15372 -0.0285871 
-0.088271 0.126713 0.00126975 
0.0302323 0.0969553 -0.0166472 
-0.0256856 0.161028 -0.00218154 
-0.0135852 0.123715 -0.00700086 
0.0172732 0.0792708 -0.0288683 
-0.0739011 0.106421 -0.010241 
-0.062692 0.155999 0.0140721 
-0.0910269 0.129538 0.0072515 
-0.00358089 0.036197 -0.0248262 
-0.0939252 0.118758 0.016301 
0.039239 0.0589589 -0.00512401 
0.0387477 0.0589461 -0.0057234 
0.0379552 0.0588939 -0.00773658 
0.0368613 0.0587703 -0.00975684 
0.0361211 0.0586877 -0.0107678 
0.0355639 0.058664 -0.0117324 
0.0348936 0.0586201 -0.0127038 
0.026052 0.121668 0.00219807 
0.0331444 0.0584441 -0.0147212 
0.0320792 0.05838 -0.0156698 
-0.0177093 0.0385258 -0.00321073 
0.0273731 0.0578707 -0.0207586 
0.026592 0.0578126 -0.0217526 
-0.0186556 0.0480312 -0.0293255 
-0.0301817 0.12316 -0.0042413 
0.0258208 0.0577421 -0.0227411 
0.0312874 0.108108 -0.0105276 
0.00720473 0.0823989 -0.0333538 
0.0270498 0.0919981 -0.0213752 
-0.0933659 0.118725 0.0133024 
-0.0887169 0.125354 0.00227396 
0.0177903 0.112808 -0.0155711 
-0.0619851 0.167813 -0.0525933 
-0.0410386 0.153314 -0.00775366 
-0.0888712 0.101031 0.0183836 
0.0209713 0.0966458 -0.0223043 
0.0313378 0.118325 0.00558524 
-0.0320486 0.122707 -0.00572396 
-0.0620171 0.153759 -0.016582 
-0.0623508 0.146001 -0.00658982 
-0.0299989 0.178534 -0.0140055 
-0.0827664 0.0789303 0.000509537 
0.0125423 0.120941 -0.012332 
-0.0624894 0.163088 -0.0505885 
-0.0518659 0.144686 0.0163701 
-0.0513993 0.14316 0.0173798 
-0.0827552 0.07629 0.0125227 
0.0292061 0.055224 -0.0177993 
-0.0734823 0.0649094 0.0160661 
-0.0617152 0.175423 -0.0614275 
-0.0447383 0.0738987 -0.0178782 
-0.0759663 0.179251 -0.0520449 
-0.049226 0.14015 0.0123965 
-0.0694684 0.158126 -0.0509379 
-0.0298186 0.154044 -0.00457012 
0.0125568 0.129953 0.0057397 
-0.0788576 0.105851 -0.00657974 
-0.0894235 0.0942851 0.0164251 
0.0277802 0.0692504 -0.0226951 
-0.0824261 0.101938 -0.00456304 
-0.0542529 0.0545999 -0.00539104 
-0.0852211 0.103481 0.00138673 
-0.0122779 0.122169 -0.00937841 
-0.0623369 0.16467 -0.04959 
0.0429858 0.0691484 -0.00178958 
-0.0794787 0.104524 -0.00660043 
-0.0871129 0.152836 0.0157593 
-0.067835 0.0951999 -0.016639 
-0.0580744 0.136937 -0.00566118 
0.0393181 0.0603877 -0.00577734 
0.0377251 0.0602627 -0.00973714 
0.0353685 0.0600237 -0.0127796 
0.0322222 0.0597861 -0.0166881 
-0.0676975 0.0607342 0.0101856 
0.0144142 0.0418406 -0.0232939 
0.045527 0.0791773 0.00219591 
0.0313723 0.0597573 -0.0175925 
0.0295583 0.0594698 -0.0188239 
-0.0862825 0.106347 0.0193454 
0.0281353 0.0593598 -0.0207767 
0.0385464 0.0954957 -0.00890109 
0.0273613 0.0592959 -0.0217662 
0.0264018 0.0591975 -0.0228202 
-0.000135712 0.0381648 -0.0142912 
-0.0143105 0.0338147 -0.022462 
-0.0935755 0.117419 0.0183042 
-0.0494965 0.11266 -0.0171746 
0.0190867 0.0428243 -0.0216805 
-0.0859627 0.109007 0.009354 
-0.0077824 0.0784642 -0.0379203 
-0.0883581 0.0875191 0.0194553 
-0.0179511 0.175707 -0.0173471 
-0.0618601 0.153758 -0.0185818 
-0.0871972 0.102223 0.00642609 
0.0419459 0.0625408 -0.0027477 
-0.0620348 0.146024 -0.00560988 
0.0428658 0.0623821 -0.00251673 
-0.0896222 0.111892 0.015334 
-0.0563459 0.0335397 0.00260276 
0.0409145 0.07739 -0.0077683 
-0.0702648 0.156758 -0.047919 
-0.0885378 0.137788 0.0102157 
-0.0212772 0.0382158 0.00549847 
0.01688 0.104029 -0.0201606 
0.0251837 0.112665 -0.0114294 
-0.0113381 0.0986434 -0.0265191 
-0.0615795 0.156866 -0.0245858 
-0.0614886 0.156862 -0.0235899 
-0.0271327 0.0917299 -0.030613 
0.0276359 0.0629152 -0.0215123 
0.0415397 0.0690275 -0.00677 
-0.0709434 0.168021 -0.0490096 
-0.0784181 0.163881 -0.0269512 
0.0278652 0.0996344 -0.0174729 
-0.0151083 0.184586 -0.0219884 
-0.0190143 0.123258 -0.00649836 
-0.0512927 0.135429 -0.000552487 
0.0232414 0.0663429 -0.0257954 
-0.0413443 0.159411 0.00325579 
-0.0564562 0.159872 0.00406757 
-0.042083 0.168351 -0.00985967 
-0.00564795 0.049654 -0.0307584 
-0.010699 0.104948 -0.0231645 
0.0410386 0.099944 -0.00278716 
-0.0849215 0.130733 -0.00170191 
0.0243931 0.0503998 -0.0217952 
0.0438483 0.076237 -0.00278527 
-0.0467495 0.117966 -0.0147678 
-0.0441012 0.15765 -0.00916962 
-0.0713739 0.162409 -0.0439557 
-0.0798641 0.145899 -0.00181913 
-0.0904479 0.129526 0.00625875 
-0.0375363 0.128085 0.0104763 
0.0402464 0.0618954 -0.00472398 
-0.0619218 0.112503 -0.0143567 
0.039774 0.0618507 -0.00575724 
-0.0745611 0.163685 -0.0159572 
0.0390675 0.0617702 -0.00778266 
0.0382522 0.0617095 -0.0097618 
0.0367516 0.061565 -0.0117718 
0.0357612 0.0614637 -0.0127934 
-0.0192339 0.166857 -0.012207 
-0.0692155 0.155426 0.0044718 
-0.0332687 0.15271 -0.00392746 
-0.0659867 0.134061 -0.00822741 
-0.0818376 0.116236 -0.00283916 
0.0348978 0.0613787 -0.0138096 
0.034267 0.0613198 -0.014809 
0.0335661 0.0612752 -0.015761 
0.0328256 0.0611992 -0.0167775 
0.0320447 0.061134 -0.0177676 
0.0288984 0.0924492 -0.0198656 
-0.0283013 0.113756 -0.016413 
0.0292827 0.060879 -0.0197951 
0.0284552 0.0607955 -0.0208488 
0.0276877 0.0607373 -0.0218456 
0.0267364 0.0606633 -0.022785 
0.0253513 0.0605347 -0.0238887 
-0.018436 0.0384553 -0.00144245 
-0.0548596 0.0462919 -0.006395 
0.0197584 0.121448 -0.00690816 
-0.0631703 0.172516 -0.0516045 
0.00516194 0.0978455 -0.0256065 
-0.0682589 0.154325 -0.0506473 
-0.0297187 0.0523119 -0.0193651 
-0.0623548 0.166257 -0.0465894 
-0.0624916 0.166267 -0.0445898 
0.0460928 0.061454 -0.00359733 
-0.0243398 0.183957 -0.0138554 
0.0447757 0.0875223 -0.000814326 
-0.0628947 0.161497 -0.0505862 
0.0404048 0.0661215 -0.00776758 
-0.0626379 0.152126 -0.0285986 
-0.0613674 0.169388 -0.0565896 
-0.067463 0.166618 -0.0559977 
-0.0655788 0.037063 0.0157921 
-0.0486888 0.138617 0.0104009 
-0.0513326 0.0542594 0.0137993 
-0.0618725 0.160013 -0.0255862 
-0.0845392 0.0778023 0.0145171 
-0.0769756 0.068555 0.0156381 
-0.086179 0.107645 0.0083646 
-0.0774115 0.160346 -0.0169397 
-0.0679113 0.0395796 0.0109828 
-0.048947 0.138616 0.00839947 
-0.00919366 0.172678 -0.0237455 
0.0140981 0.0343905 -0.0079847 
-0.0405211 0.16525 0.00379284 
-0.0893331 0.111939 0.012355 
-0.0521114 0.156091 -0.00406652 
-0.0543713 0.158326 -0.00178875 
-0.0616908 0.156845 -0.0305919 
-0.0234134 0.181486 -0.0190275 
-0.0819436 0.154696 0.0145801 
-0.072483 0.0356257 0.00284128 
-0.0861402 0.0859086 0.000475654 
-0.0656191 0.164967 -0.0232289 
-0.0797197 0.143117 -0.0027917 
-0.0624555 0.163099 -0.0465902 
-0.094679 0.122825 0.0202733 
-0.0651006 0.0458549 0.00368955 
-0.0132439 0.178631 -0.0284206 
-0.0934962 0.117401 0.0173034 
-0.0359734 0.151065 -0.00183 
-0.0491537 0.135503 0.0034228 
-0.00758227 0.0362053 -0.0250795 
-0.0804601 0.148683 0.000173633 
-0.0567938 0.0498747 0.00808849 
0.0251044 0.111527 -0.0122017 
0.000368669 0.0466323 -0.0286891 
-0.0657843 0.167288 -0.0290298 
-0.0668634 0.040937 0.011312 
-0.0436341 0.171062 -0.00299049 
-0.0743438 0.156862 -0.0249223 
-0.0921005 0.132392 0.0222257 
-0.093028 0.117371 0.013308 
0.0407504 0.0633497 -0.00473671 
0.0402874 0.063301 -0.00576463 
0.0399096 0.0632641 -0.00677014 
0.0391263 0.0631992 -0.00875738 
0.0385298 0.0631329 -0.0097765 
-0.0199542 0.180019 -0.0229778 
0.0371109 0.0630101 -0.0117592 
0.0350456 0.0627954 -0.0138277 
-0.0509168 0.0335668 6.7085e-05 
0.0330982 0.0626311 -0.0167961 
0.0294467 0.0623083 -0.0198501 
0.0275233 0.0621538 -0.0218174 
-0.092876 0.129604 0.0142376 
0.0254584 0.0383883 -0.00303811 
-0.0864494 0.107673 0.0113573 
-0.0115998 0.0391898 -0.02633 
-0.0938278 0.128299 0.0222532 
0.0321511 0.0724311 -0.0187615 
-0.0913588 0.113353 0.0143394 
-0.067202 0.162346 -0.0569974 
0.0203578 0.0985304 -0.0223097 
-0.0624498 0.166273 -0.0455815 
-0.0515065 0.160835 0.00704803 
-0.010049 0.165099 -0.0207588 
-0.03739 0.165304 0.000185179 
-0.071563 0.151347 -0.0436244 
-0.0627531 0.161513 -0.0475897 
-0.0447475 0.146272 0.00240034 
-0.0619701 0.160031 -0.0245798 
0.00642086 0.116423 -0.0174422 
-0.0621336 0.16002 -0.0235787 
-0.0267044 0.158758 -0.0121466 
-0.0186814 0.0539839 -0.0321072 
-0.0607772 0.146055 -0.00361746 
0.0330035 0.116489 0.00476188 
0.0319929 0.088146 -0.0193446 
-0.0721186 0.0637108 0.0173676 
-0.0111221 0.0980696 -0.0279124 
-0.0762074 0.0906406 -0.013533 
-0.0616144 0.155309 -0.0245851 
0.0413993 0.0942972 -0.00577735 
-0.0865991 0.0833319 0.0164838 
-0.0409029 0.149467 0.00342301 
0.0441946 0.0874765 -0.00278813 
-0.0114724 0.180094 -0.0295969 
-0.0893947 0.113204 0.00833335 
-0.0723361 0.155599 0.00334302 
0.0251623 0.118606 -0.00580398 
-0.0271937 0.174158 -0.0183459 
-0.0722094 0.155629 0.00630789 
-0.0488146 0.109958 -0.0184987 
-0.0575443 0.0401418 -0.00909914 
-0.0787914 0.14589 -0.00282549 
-0.0580456 0.0494852 0.00468232 
-0.0709341 0.162789 -0.0122264 
-0.0627916 0.150662 -0.00757045 
0.0404164 0.0647148 -0.00677085 
0.0400167 0.0646852 -0.00776271 
-0.00180047 0.0840422 -0.0369301 
-0.077013 0.157587 -0.0116646 
0.0374992 0.0644481 -0.0117672 
0.0347681 0.0641816 -0.0148052 
-0.016169 0.117727 -0.0146898 
0.032684 0.0640121 -0.0177767 
-0.0292201 0.0564848 -0.022383 
0.0282585 0.063629 -0.0207965 
-0.0728966 0.155445 -0.0329107 
-0.088578 0.151544 0.0220955 
0.012978 0.0975651 -0.0232996 
0.0287509 0.0911639 -0.0204971 
-0.0689729 0.181022 -0.0546459 
-0.0197383 0.108898 -0.0213322 
-0.0868944 0.122556 -0.00173403 
-0.0485449 0.165375 0.00344343 
-0.0624633 0.170945 -0.051605 
-0.0870246 0.129415 0.000309032 
-0.0618485 0.153752 -0.0205795 
-0.0768702 0.122267 -0.00710647 
-0.0861323 0.103534 0.00440203 
-0.0356565 0.122935 -0.00798984 
0.0215374 0.086463 -0.0256391 
-0.0485411 0.166778 0.000587101 
-0.0728856 0.148047 -0.0249504 
-0.0525207 0.150874 0.0175975 
-0.0331847 0.0445939 -0.0279862 
-0.0879901 0.0928029 0.00642738 
-0.0507589 0.144713 0.0133585 
-0.0556068 0.119255 -0.0119973 
-0.0762076 0.0680671 0.0162505 
0.0258455 0.110181 -0.0127425 
-0.0179622 0.106228 -0.0225141 
-0.0595357 0.0400627 -0.00844467 
-0.0023355 0.0926921 -0.0342848 
0.0044338 0.117686 -0.0167913 
0.0369605 0.105409 -0.00483089 
0.0371254 0.0869172 -0.0157926 
-0.0353742 0.125928 -0.00196324 
-0.0662723 0.154476 -0.00173975 
-0.069363 0.163799 -0.0509746 
0.0032744 0.114489 -0.0193505 
-0.0737025 0.144377 -0.00986626 
-0.0886572 0.111878 0.019323 
-0.0378805 0.108506 -0.019759 
-0.0730299 0.172199 -0.0345665 
0.0411176 0.0661976 -0.00575682 
0.0387498 0.0659721 -0.0107606 
0.0372578 0.0658262 -0.0127785 
-0.0408143 0.0899706 -0.0230035 
-0.0751451 0.15577 0.0110973 
0.0352496 0.0656442 -0.0147977 
-0.0331266 0.0338175 0.0106794 
0.0337176 0.0655129 -0.0167917 
0.0083446 0.116042 -0.0170347 
0.0289004 0.0650837 -0.0199869 
0.0255963 0.0648009 -0.0228004 
-0.0261077 0.0372445 -0.0185929 
-0.045035 0.131096 0.00921538 
-0.0331172 0.123673 -0.00477506 
-0.00658665 0.0388228 -0.0143041 
-0.0931674 0.126844 0.0122586 
-0.00533161 0.123249 -0.0106624 
-0.0905225 0.118622 0.0053153 
-0.0283024 0.0362399 -0.0299084 
-0.093138 0.120057 0.0112982 
-0.0685057 0.159542 -0.0539539 
-0.0623474 0.166249 -0.0485903 
-0.0627193 0.152197 -0.01058 
-0.0848075 0.100731 -0.000569426 
-0.0782747 0.174383 -0.0433933 
-0.0666146 0.174697 -0.0480375 
-0.0625367 0.161521 -0.0446005 
-0.0548867 0.101301 -0.0205491 
-0.072621 0.142849 -0.00891964 
-0.0572927 0.0447946 0.0143752 
-0.0716693 0.147461 -0.0281971 
-0.0212056 0.0336704 -0.0218021 
-0.0178004 0.121647 -0.00876548 
0.013368 0.122467 -0.00997636 
-0.0540284 0.131061 -0.00500164 
-0.0521695 0.144678 0.0173655 
-0.00158589 0.110252 -0.0207823 
0.0452758 0.0875665 0.00218329 
-0.0306807 0.0363386 -0.0186663 
-0.0498057 0.144755 0.010389 
-0.0780017 0.150056 -0.00287894 
-0.00977222 0.11683 -0.0157853 
-0.0688541 0.147497 -0.029579 
-0.0621883 0.177235 -0.0596222 
-0.0325574 0.126601 0.00788172 
-0.0466771 0.0355018 -0.0172702 
-0.0624172 0.0599054 0.00479638 
-0.0381912 0.168168 -0.0127822 
-0.0891224 0.133627 0.00423095 
-0.0491873 0.165537 -0.00392571 
-0.0739419 0.129646 -0.00820737 
-0.0468444 0.033579 -0.0045851 
-0.0467966 0.0336683 0.000813328 
0.0432399 0.0747788 -0.00379578 
-0.0711896 0.155374 -0.0449035 
-0.00878391 0.0340179 -0.0196776 
-0.0687967 0.0894213 -0.0168337 
-0.000674255 0.10997 -0.0204918 
-0.0689806 0.138464 -0.0078252 
-0.0750751 0.149943 -0.025867 
-0.0597956 0.0925385 -0.0196216 
-0.0616586 0.172539 -0.056588 
-0.04802 0.136068 0.0153684 
-0.0846088 0.10754 0.00337493 
0.0428284 0.0676747 -0.00179274 
0.0420557 0.0676716 -0.00377172 
0.041165 0.0675922 -0.00677134 
0.0377774 0.0672774 -0.012792 
-0.0335515 0.0373466 -0.0164398 
0.0357587 0.067099 -0.014806 
-0.0250231 0.0373676 -0.0184933 
0.0214342 0.0934308 -0.0229317 
0.0347467 0.0670098 -0.0158076 
0.0317419 0.0667553 -0.0187125 
0.0282217 0.0664463 -0.0207545 
0.02743 0.0663837 -0.0217206 
-0.0301406 0.0636155 -0.0234264 
0.0264606 0.0663192 -0.0226274 
0.0198172 0.102563 -0.0205962 
-0.0737921 0.165213 -0.0399888 
-0.0415646 0.125825 -0.00703356 
-0.0280135 0.0591603 -0.0264206 
0.0256941 0.120543 -0.00190068 
-0.0909761 0.118636 0.00631645 
-0.070219 0.146984 -0.026659 
-0.0915391 0.118654 0.00731945 
-0.0924079 0.114699 0.0153245 
-0.0813576 0.0734641 0.0155425 
-0.0889514 0.121274 0.00229944 
-0.0145953 0.0363242 -0.0264317 
-0.0632603 0.157387 -0.0151607 
-0.0743851 0.163815 -0.0369793 
-0.048864 0.162635 -0.0057974 
-0.0750897 0.149941 -0.0248696 
-0.00479094 0.0798443 -0.0373862 
-0.0564227 0.125779 -0.00685719 
-0.0684896 0.172346 -0.0400602 
-0.0771179 0.165222 -0.035974 
-0.0828817 0.143196 0.00216401 
-0.0195403 0.1757 -0.0161256 
-0.0939826 0.118759 0.0192971 
-0.0379926 0.15214 0.00278328 
-0.0892569 0.122633 0.00330914 
-0.0306102 0.125527 0.00421635 
-0.0688943 0.103764 -0.0141878 
-0.0489654 0.138607 0.014392 
-0.0488087 0.138617 0.0133952 
-0.0696706 0.14899 -0.0379959 
-0.0620479 0.155306 -0.016587 
-0.00894653 0.174179 -0.0257648 
-0.0577868 0.0840301 -0.0211707 
-0.0624573 0.163073 -0.0525854 
0.0429729 0.0944315 -0.00180352 
-0.00749956 0.121159 -0.0124082 
0.0419622 0.102841 0.00417469 
-0.0347028 0.122731 -0.00776716 
-0.0793237 0.108591 -0.00458021 
-0.0708134 0.0893817 -0.0163657 
-0.0762945 0.152787 -0.0118902 
0.0421 0.0690665 -0.00478535 
0.0410434 0.0689808 -0.00777311 
0.0399488 0.0688733 -0.0097971 
0.0394368 0.0688303 -0.0107955 
-0.0677074 0.147127 -0.0273126 
0.0380126 0.0687088 -0.0127776 
-0.0667655 0.079447 -0.0174677 
0.0369946 0.0686204 -0.0137746 
0.0359934 0.0685324 -0.0147875 
-0.0778143 0.0696403 0.00741827 
0.0325469 0.0922927 -0.0176842 
0.0339501 0.0683557 -0.0167775 
0.0296786 0.0679688 -0.0198342 
-0.0229201 0.115998 -0.0147881 
0.0289606 0.0679277 -0.0207366 
0.0280724 0.0678498 -0.0217391 
-0.0259227 0.123138 -0.0042558 
-0.006336 0.10011 -0.0240468 
0.02297 0.122414 -0.00191144 
-0.0855435 0.108961 0.00733555 
-0.0414315 0.120058 -0.0129928 
-0.0599544 0.0581084 0.014112 
-0.0887132 0.118572 0.00232339 
-0.0756134 0.163772 -0.0350068 
-0.0936604 0.128255 0.0172452 
-0.0509699 0.122064 -0.0109984 
-0.0936226 0.120076 0.0132919 
-0.0559081 0.112628 -0.0165116 
-0.0881544 0.121251 0.000301062 
-0.0634329 0.159891 -0.0505847 
-0.0625478 0.177823 -0.0603383 
-0.0621574 0.152203 -0.016578 
-0.0862104 0.140486 0.00518463 
-0.0624348 0.161527 -0.0435948 
0.0446233 0.0903218 -0.000806954 
-0.0535232 0.0556038 0.0117195 
-0.0147659 0.0742889 -0.0388052 
-0.0627683 0.164709 -0.0355885 
0.0262642 0.0479348 -0.017662 
-0.0617814 0.16156 -0.0355923 
-0.0209098 0.0382599 0.00734769 
-0.0104535 0.0366522 -0.0168147 
-0.0492135 0.140151 0.00839688 
-0.0248162 0.126254 0.00926143 
-0.046654 0.0606571 -0.0123502 
-0.0633454 0.159973 -0.0185957 
0.0179495 0.127337 0.00345096 
-0.0308705 0.0385373 -0.0301935 
-0.0617079 0.155317 -0.0205813 
-0.0625714 0.164724 -0.0395894 
-0.0493817 0.138599 0.0163919 
0.00221518 0.114462 -0.0193126 
-0.0435213 0.0379732 -0.0242868 
-0.00975768 0.167025 -0.0223761 
-0.0374903 0.172653 -0.000576721 
0.0415402 0.0928967 -0.0067838 
-0.0620154 0.164635 -0.0555847 
-0.0809612 0.0747382 0.0015261 
-0.0100488 0.177211 -0.0257537 
-0.0171943 0.171219 -0.0224352 
-0.0627985 0.161541 -0.0235962 
-0.0745653 0.158254 -0.0269305 
-0.0622081 0.163133 -0.0355907 
0.00595359 0.131311 0.0061803 
-0.0872126 0.146051 0.00824907 
0.0373688 0.102607 -0.00785264 
0.0559458 0.0605187 0.000117677 
0.0401633 0.102703 -0.00178896 
-0.0892823 0.141954 0.0132429 
-0.0888501 0.102361 0.0153809 
-0.0441374 0.160646 -0.00957119 
-0.0861037 0.109061 0.0193453 
-0.0871093 0.106357 0.0153576 
-0.0869351 0.106366 0.0163624 
0.0182274 0.125477 -0.00123802 
0.0435889 0.0706095 -0.000776861 
0.0423965 0.0704871 -0.00480867 
0.0412244 0.0703917 -0.00779979 
0.0535386 0.0505579 0.00123438 
0.0400896 0.0702922 -0.00980716 
-0.068761 0.17368 -0.0560297 
-0.0207673 0.117009 -0.0138783 
0.0367682 0.0700097 -0.0138015 
-0.0780733 0.100357 -0.00962255 
0.0339669 0.0697663 -0.0167955 
-0.00056724 0.0909565 -0.0345037 
0.019082 0.126548 0.00245443 
0.0296062 0.0693912 -0.0207509 
0.028746 0.0693043 -0.0217828 
-0.0933214 0.129622 0.0172404 
-0.0863354 0.129395 -0.000699295 
-0.084898 0.11701 -0.000772283 
-0.0940603 0.120098 0.0152926 
-0.0939163 0.120093 0.0142993 
-0.0624367 0.153758 -0.0135798 
-0.0894985 0.121276 0.00330358 
-0.0620333 0.153738 -0.0275809 
-0.0621975 0.166246 -0.0505873 
-0.0759482 0.152671 -0.0129066 
-0.062327 0.161572 -0.0265871 
-0.0630898 0.161515 -0.0224551 
-0.0276364 0.0917699 -0.0296042 
-0.0677301 0.181168 -0.057983 
-0.0017304 0.0712031 -0.0351875 
-0.0297438 0.0593588 -0.0214043 
-0.0758557 0.103473 -0.0101675 
-0.0761089 0.149998 -0.0108814 
-0.0493972 0.140141 0.00739907 
-0.0782718 0.165861 -0.029036 
-0.0310964 0.160762 -0.0139612 
-0.0568311 0.0912579 -0.0217399 
-0.0384168 0.120732 -0.0116964 
-0.00995367 0.16681 -0.0217203 
-0.0733601 0.156855 -0.0299134 
-0.0408505 0.0971293 -0.022095 
-0.0488259 0.138613 0.00940263 
-0.0229141 0.111944 -0.0185359 
-0.0114808 0.0353662 -0.0177045 
-0.0270407 0.125883 0.0113821 
-0.0564079 0.0334582 -0.0027528 
-0.0386238 0.0335154 -0.0250853 
-0.0514727 0.147804 0.0154008 
-0.0496185 0.140151 0.0144011 
-0.0671246 0.042281 0.0101216 
-0.0647018 0.172123 -0.0473675 
-0.0155474 0.160527 -0.0107791 
-0.0508473 0.0970748 -0.0222124 
-0.0616576 0.170967 -0.0555865 
-0.0841107 0.0938743 -0.00455389 
-0.0438868 0.107083 -0.0199439 
-0.0364114 0.175555 -0.00996795 
0.000649673 0.0963928 -0.0300705 
-0.0648688 0.0938916 -0.0183701 
-0.0765583 0.148625 -0.00886956 
0.0397669 0.0885289 -0.0117744 
-0.056803 0.119986 -0.0107265 
0.0340234 0.0585319 -0.0137143 
-0.0650469 0.168333 -0.0359323 
-0.0405815 0.125646 -0.00686289 
-0.087237 0.106355 0.0143591 
-0.0198477 0.126879 0.00378288 
-0.0779912 0.139819 -0.00526751 
0.0423416 0.0718943 -0.00578991 
-0.0232571 0.160328 -0.0132723 
0.0413467 0.0718054 -0.00779903 
-0.0526917 0.0662141 -0.0112413 
0.0407806 0.0717592 -0.0087638 
-0.0334203 0.0667037 -0.0174892 
0.0401652 0.0717052 -0.00977551 
0.0386477 0.0715748 -0.0117783 
0.0375264 0.0714822 -0.0127977 
-0.0572305 0.057508 0.0152056 
0.0355169 0.0713149 -0.0148173 
0.0329357 0.0710876 -0.0177809 
0.0306903 0.0708797 -0.0198199 
0.0300166 0.0708304 -0.0207823 
0.0144149 0.0343798 -0.00603429 
0.0291436 0.0707502 -0.0218013 
-0.0658642 0.141582 -0.00840157 
0.012958 0.0904818 -0.0298536 
0.00434097 0.053874 -0.0300717 
0.0143759 0.121374 -0.0108038 
-0.0737507 0.0835282 -0.0152437 
-0.0286807 0.0383267 -0.00339493 
-0.0753023 0.155004 0.00375308 
-0.0538319 0.138205 -0.00152003 
-0.0907748 0.12133 0.00629364 
-0.0620847 0.166243 -0.0515916 
-0.0487902 0.0855221 -0.0217064 
-0.0397192 0.03358 0.00232461 
-0.0621482 0.16155 -0.0395978 
0.0429565 0.0986678 0.00218951 
-0.0616651 0.174109 -0.0575903 
-0.03015 0.171175 -0.0170282 
-0.0764024 0.150045 -0.00692327 
0.00710696 0.112707 -0.0194319 
-0.0378922 0.04725 -0.0183117 
-0.0287456 0.0753309 -0.0348961 
-0.062465 0.163086 -0.0495893 
-0.0645248 0.154173 -0.00692339 
-0.0946116 0.124177 0.0212718 
-6.48961e-05 0.130222 0.00105503 
-0.0628566 0.145948 -0.0105775 
0.0102649 0.129908 0.00205228 
-0.0729374 0.129655 -0.00843737 
-0.0437556 0.0335262 -0.0205177 
0.0336501 0.0872305 -0.0183746 
-0.0643983 0.155173 -0.0416037 
-0.0618022 0.0852922 -0.0192956 
-0.062529 0.150617 -0.0195776 
-0.0107925 0.18028 -0.0267448 
-0.0103146 0.180354 -0.0288775 
0.0433237 0.0846089 -0.00479162 
-0.0627029 0.150609 -0.0235776 
-0.0908751 0.135104 0.0182068 
-0.0551021 0.154591 -0.0020359 
0.0453728 0.0735622 0.00221503 
-0.0864626 0.107749 0.0163884 
0.0444193 0.0734774 0.000193217 
-0.0420929 0.156178 -0.00917116 
0.033772 0.0543003 -0.00971113 
0.0437981 0.0734503 -0.00176783 
-0.00344803 0.111769 -0.0204187 
0.0392199 0.073038 -0.0108301 
-0.0362833 0.17342 -0.00108904 
-0.0711998 0.15079 -0.0434624 
0.0413114 0.0661977 -0.00477755 
0.0434836 0.0734019 -0.00279222 
-0.0738976 0.0662178 0.00410027 
0.042732 0.0733313 -0.00479409 
-0.0730453 0.0699885 -0.00346826 
0.0423481 0.0732982 -0.00579253 
-0.0838382 0.11616 -0.00137187 
0.0413134 0.0732089 -0.00778125 
-0.0653226 0.0343003 0.0144151 
-0.0168303 0.0382802 0.00815469 
0.0384815 0.0729589 -0.0117402 
0.0371376 0.0728556 -0.0127896 
0.0303577 0.105377 -0.0136057 
0.0359341 0.0727624 -0.0138488 
0.0352424 0.0726953 -0.0147969 
0.0336358 0.0725575 -0.0168317 
0.0302861 0.0722616 -0.0207987 
-0.0615859 0.155307 -0.0235819 
0.0283367 0.0719509 -0.0228156 
0.0147132 0.0897404 -0.0290836 
-0.0892011 0.0983026 0.0104143 
-0.0897017 0.151503 0.0171224 
-0.0123225 0.124091 -0.00743567 
-0.0403541 0.121097 -0.0120881 
0.00730102 0.131 0.00524198 
-0.0631195 0.176032 -0.0554618 
-0.0665181 0.171112 -0.0407548 
-0.0914924 0.12135 0.00727423 
-0.0592055 0.155872 0.0109493 
-0.0178239 0.107521 -0.0218927 
-0.0357967 0.0383351 -0.00483874 
-0.0620712 0.16624 -0.0525885 
-0.0753594 0.113961 -0.00568407 
-0.0622845 0.161545 -0.0405978 
-0.0116746 0.164119 -0.0176003 
-0.0721022 0.165224 -0.0439746 
-0.0737877 0.170302 -0.0290826 
-0.04997 0.140123 0.00440621 
-0.0521665 0.136903 -0.000627156 
-0.0616655 0.144455 -0.00523057 
0.0551275 0.0637038 0.000299703 
-0.0181419 0.159077 -0.00932452 
-0.0618853 0.158437 -0.0215849 
0.0252898 0.0704815 -0.0246106 
-0.0629233 0.149038 -0.01858 
-0.0633941 0.159891 -0.0485891 
-0.0400434 0.149481 0.00241998 
-0.0445167 0.0334752 0.00325528 
-0.0632202 0.150553 -0.0275915 
0.0203664 0.0506236 -0.0244327 
-0.0149527 0.0339242 -0.0208085 
-0.0171444 0.168289 -0.0207283 
-0.0620511 0.164652 -0.0545872 
-0.0622205 0.164668 -0.0515889 
-0.0621725 0.160005 -0.022587 
-0.0630515 0.152177 -0.00858675 
-0.0484658 0.144752 0.00741107 
-0.0747588 0.0669346 0.0175421 
0.0388792 0.085648 -0.0137779 
-0.0730559 0.14548 -0.015959 
0.0453833 0.074968 0.00220665 
-0.0427276 0.129253 0.0100405 
0.0450172 0.0749324 0.00120229 
-0.0713326 0.0345571 0.00760774 
0.0443985 0.0748779 -0.000803542 
0.0441279 0.0748554 -0.00179683 
-0.0210545 0.100222 -0.024166 
0.0422621 0.0746939 -0.00581448 
0.0163546 0.0537375 -0.0279072 
-0.0588824 0.0997395 -0.0190365 
0.0411805 0.0745986 -0.0077775 
-0.0354802 0.0365931 -0.0303176 
0.0404486 0.0745397 -0.00879543 
0.0390327 0.0744186 -0.0107818 
0.0381305 0.0743398 -0.0117665 
0.0357477 0.074144 -0.0137952 
0.033587 0.0739599 -0.0167921 
-0.0166345 0.0465837 -0.0289175 
0.0323759 0.0738626 -0.0187418 
-0.0217873 0.0728206 -0.0385569 
0.031592 0.0738009 -0.0197207 
0.029581 0.0736246 -0.0217333 
-0.0356976 0.121856 -0.0088333 
-0.0320811 0.1577 -0.0118106 
-0.0880973 0.137764 0.00820327 
-0.0726673 0.155437 -0.0339106 
-0.0816033 0.101897 -0.00556882 
-0.0909349 0.113307 0.0123445 
-0.0911602 0.113316 0.0133388 
0.0286778 0.116188 -0.00517917 
-0.0579749 0.117711 -0.0123561 
-0.0298717 0.104385 -0.0225787 
0.0181073 0.0398088 -0.0196993 
-0.0610597 0.172553 -0.0606091 
-0.06512 0.0430832 -0.00329452 
-0.0889531 0.100999 0.0124002 
-0.0208013 0.108893 -0.0213287 
-0.0929281 0.121393 0.0102886 
-0.0926147 0.121379 0.00928006 
-0.0264967 0.121204 -0.00819998 
-0.073929 0.152666 -0.0308896 
-0.0118859 0.163867 -0.0168515 
-0.0604332 0.0585193 0.0100455 
0.0306136 0.0779431 -0.0207534 
-0.0539359 0.0541543 0.0107637 
-0.0497158 0.140127 0.00540861 
-0.0902934 0.147439 0.0121579 
-0.0864043 0.111678 0.00530063 
-0.051601 0.149349 0.0154046 
-0.062219 0.164671 -0.0505894 
-0.048519 0.137086 0.0153953 
-0.0474379 0.0355948 -0.0152688 
-0.0624763 0.163084 -0.0515885 
0.0233509 0.0549381 -0.0249484 
-0.0103631 0.180289 -0.0277342 
-0.0104184 0.179993 -0.0295246 
-0.0682817 0.156606 -0.0532672 
0.037815 0.0630498 -0.0108066 
-0.0918049 0.126804 0.00826817 
-0.0652396 0.0384193 0.0154218 
-0.072385 0.158213 -0.0369175 
-0.0366167 0.15106 0.000396988 
0.0474285 0.0692644 0.00256538 
-0.0727808 0.161025 -0.0379399 
-0.0623602 0.164675 -0.0475927 
-0.0674032 0.144345 -0.0161484 
0.0117524 0.0352863 0.00381322 
-0.088753 0.130866 0.00325856 
-0.0641925 0.158337 -0.0512857 
-0.0265758 0.0533991 -0.0263925 
-0.0829782 0.147345 0.00316952 
0.045415 0.0763654 0.00219579 
0.0449154 0.0763231 0.00019353 
0.0446565 0.076299 -0.00080692 
-0.0708414 0.0994113 -0.0147342 
0.0256059 0.12104 -0.000826914 
0.0410535 0.0759945 -0.00777525 
0.0401892 0.0759203 -0.00879733 
-0.0338627 0.110196 -0.0186635 
0.0394635 0.075864 -0.00982057 
0.00441886 0.0361314 -0.0238164 
0.0377573 0.0757194 -0.0117756 
0.0365014 0.0756142 -0.0127863 
0.0345167 0.0754586 -0.0157294 
0.0329576 0.0753133 -0.0177979 
-0.0855527 0.153551 0.0192298 
0.0295244 0.0750328 -0.0218147 
-0.0466697 0.166955 -0.00590454 
-0.0824868 0.0965084 -0.00559576 
-0.0732183 0.172207 -0.0490431 
-0.0236465 0.18441 -0.0150532 
-0.0758824 0.100651 -0.0113429 
0.0425177 0.0660617 -0.00221978 
-0.03348 0.115008 -0.0157024 
0.0328041 0.0682575 -0.0177764 
-0.0678094 0.180556 -0.0587896 
-0.0865442 0.107736 0.017365 
-0.0248668 0.103031 -0.023615 
-0.00322809 0.0999661 -0.0238789 
-0.0894422 0.0969694 0.0114146 
-0.0507419 0.0753249 -0.0179378 
0.0238425 0.124265 0.00565298 
-0.0934924 0.121416 0.0122906 
-0.0478845 0.108472 -0.0188663 
-0.0304017 0.0791045 -0.033577 
-0.0749507 0.0661289 0.00944516 
-0.0409513 0.128783 0.00774742 
-0.0615198 0.167807 -0.0565879 
-0.0809514 0.0882189 -0.0076035 
-0.0769455 0.154831 -0.00883158 
0.0413142 0.0637288 -0.00386959 
0.00623069 0.0782309 -0.0341321 
-0.0468308 0.0941893 -0.021914 
-0.025842 0.091626 -0.0326108 
-0.065894 0.118002 -0.00906639 
-0.0913745 0.142001 0.0211607 
-0.0942425 0.120105 0.0182851 
-0.00984328 0.0975178 -0.0293224 
0.0413547 0.102812 0.0011821 
-0.0923144 0.132364 0.0182222 
-0.078089 0.159705 -0.0229182 
-0.0476612 0.135572 0.0133995 
-0.0621573 0.163143 -0.0375929 
-0.0578202 0.140285 -0.0045343 
-0.0261555 0.155801 -0.00568703 
-0.0870689 0.0968011 0.00243877 
-0.0558857 0.0970202 -0.0212239 
-0.0754744 0.151328 -0.022882 
-0.00855639 0.121127 -0.0123669 
-0.065154 0.164972 -0.0244937 
-0.0475653 0.166962 -0.00492463 
-0.0892997 0.0956389 0.0174174 
-0.0714148 0.0386609 0.00057855 
0.045728 0.077798 0.00320493 
-0.0291704 0.172664 -0.0174314 
-0.0892037 0.0956419 0.0194144 
-0.0351198 0.0484277 -0.0173281 
0.0455105 0.0777762 0.00219892 
0.0447742 0.0777119 -0.00080388 
