ply
format ascii 1.0
comment Created by CloudCompare v2.11.3 (Anoia)
comment Created 4/24/25 11:25 AM
obj_info Generated by CloudCompare!
element vertex 1534
property float x
property float y
property float z
end_header
-0.0876142 0.116272 0.0465171 
0.00749727 0.121002 0.0360768 
-0.0877434 0.135138 0.0431967 
-0.0433806 0.120699 0.0278302 
-0.076603 0.120411 0.0526033 
-0.000460653 0.0717499 0.0573883 
-0.0284888 0.0396421 0.053637 
-0.00249301 0.118317 0.039019 
0.0224678 0.0975265 0.046211 
0.0204758 0.0975716 0.0468126 
-0.0345272 0.121283 0.0279162 
0.0174829 0.0976104 0.0472234 
0.012476 0.0976634 0.0485624 
0.0114806 0.097647 0.0487825 
-0.0235023 0.105779 0.0421282 
0.0104935 0.0976882 0.0488434 
-0.0562626 0.0437454 0.0167126 
0.00848893 0.0976878 0.0492062 
0.0064803 0.0977098 0.0499318 
0.0583506 0.0662943 0.00413175 
0.00247063 0.0977635 0.0514765 
0.0441694 0.0706598 0.0245614 
0.00145793 0.0977369 0.0519067 
-0.00249736 0.0978288 0.0524276 
0.050389 0.0482108 0.0251806 
0.000472166 0.0388678 0.0256446 
0.016253 0.0794879 0.0534651 
-0.0619683 0.12268 0.0437909 
-0.00850406 0.11834 0.0382239 
-0.00569455 0.0979698 0.0521629 
0.00649387 0.0590149 0.0539921 
-0.0593675 0.145365 0.0352791 
0.0251418 0.056415 0.0432482 
0.0174945 0.0838575 0.0514031 
-0.00649249 0.0978569 0.0522238 
-0.011518 0.0673875 0.054571 
0.0589424 0.064749 0.0219118 
0.0453129 0.0698237 0.023466 
0.0217176 0.0632088 0.0471364 
-0.0580097 0.136726 0.0336791 
0.0184753 0.100361 0.0464541 
-0.0286176 0.124173 0.0196508 
-0.0254927 0.0974122 0.0441083 
-0.000496915 0.0883839 0.0565827 
-0.0734899 0.123206 0.0535424 
-0.0201321 0.0568083 0.0475876 
-0.056635 0.0350546 0.0452244 
-0.0665119 0.0621274 0.0216726 
-0.0264937 0.0973851 0.0437224 
-0.0285002 0.097396 0.0440561 
-0.0314936 0.097435 0.044487 
-0.0324865 0.0974182 0.0443398 
-0.0344737 0.0973629 0.0436701 
-0.0364752 0.09732 0.0430461 
0.0326969 0.10609 0.0333845 
-0.0385113 0.0973107 0.0424108 
-0.0154906 0.0587868 0.0517337 
-0.0404973 0.0972715 0.0419896 
-0.039498 0.118035 0.0314 
0.00310705 0.0348555 0.0387811 
-0.0455017 0.0973341 0.0429686 
-0.0541416 0.034749 0.0443256 
-0.0464922 0.097353 0.0431423 
-0.0475033 0.0973719 0.0436212 
-0.0516068 0.0345225 0.0433683 
-0.0524899 0.0973506 0.0433264 
0.017256 0.079507 0.0531399 
0.0270364 0.0347184 0.00926922 
-0.0534968 0.0973516 0.0432358 
-0.0564981 0.0973554 0.0431547 
-0.065804 0.0609905 0.0192925 
0.00651017 0.0786147 0.0558016 
-0.0717138 0.073474 0.0353741 
0.0116668 0.0548951 0.0518589 
0.0156656 0.0713152 0.0525386 
0.000467241 0.105823 0.0432483 
-0.0520334 0.0346252 0.0362685 
-0.0585016 0.0973698 0.0431908 
-0.0634992 0.0973124 0.0426152 
0.0435266 0.0664036 0.0265247 
0.00751373 0.0869673 0.0561316 
-0.0665061 0.0972756 0.0420058 
0.02539 0.0849287 0.0474039 
-0.0253871 0.124202 0.0208009 
0.00448658 0.111391 0.0416751 
-0.0798314 0.0733447 0.0205614 
0.00650836 0.0813916 0.0558754 
-0.0924935 0.124207 0.0332695 
0.0596824 0.0622541 0.020173 
0.0296208 0.115866 0.0291818 
-0.0574974 0.104327 0.0414929 
-0.00449819 0.0604864 0.0551163 
-0.0314741 0.053189 0.0369367 
-0.0850483 0.109026 0.0223524 
-0.0663732 0.0796127 0.0418746 
-0.0370064 0.121579 0.0285082 
-0.00496439 0.130958 0.0121612 
-0.0295069 0.109802 0.0378356 
-0.00422658 0.0396088 0.0480089 
0.0272653 0.121002 0.0240179 
0.00897502 0.113705 0.0394792 
0.00393808 0.131671 0.0154244 
-0.0744868 0.14835 0.0408614 
-0.0461472 0.0695191 0.0407559 
0.0115009 0.111256 0.0392728 
0.0224877 0.0961643 0.0466342 
0.0204867 0.0961927 0.0470968 
0.0144666 0.0962642 0.0485999 
0.0134626 0.0962698 0.0490469 
0.00748545 0.0964088 0.0510363 
0.0238579 0.0490757 0.0395236 
0.005469 0.0964333 0.0520715 
-0.0253439 0.0693349 0.0439513 
0.00247314 0.0964836 0.053027 
0.000488577 0.0965409 0.0535304 
0.0373005 0.103362 0.0294506 
-0.000502572 0.0965565 0.053664 
-0.00149973 0.0965741 0.0536819 
-0.00249868 0.0965524 0.0536599 
0.0595925 0.0636093 0.00613697 
-0.0467618 0.0657183 0.0385512 
0.0310541 0.0727142 0.0413756 
-0.00649214 0.0965537 0.0536631 
-0.0435018 0.0478421 0.040059 
-0.0500004 0.121197 0.0329094 
0.0597837 0.0567045 0.0121686 
-0.0616059 0.0342155 0.0188015 
0.046038 0.044353 0.0245911 
0.0191746 0.064523 0.0487473 
0.0290261 0.106116 0.036871 
0.0223863 0.0449715 0.0408911 
-0.0252475 0.0736694 0.0465167 
-0.00948854 0.0965445 0.0534324 
-0.0124889 0.0964872 0.0522501 
-0.0164554 0.0963571 0.0512639 
0.0136057 0.0460076 0.0440344 
-0.000225629 0.097747 0.0525183 
-0.0664905 0.0861274 0.0441111 
-0.0735123 0.142806 0.0460464 
-0.0501985 0.140132 0.0173988 
-0.030372 0.124909 0.019004 
-0.0144911 0.124164 0.030554 
0.0114621 0.125412 0.0310862 
-0.0247071 0.0959212 0.0441969 
-0.0254875 0.0959781 0.0438332 
-0.0888276 0.090232 0.0214359 
-0.0570855 0.0480965 0.0356642 
0.0356753 0.0619319 0.0374332 
-0.0274981 0.0960112 0.0443229 
-0.0856634 0.1104 0.0223511 
-0.0334914 0.0960174 0.044365 
-0.0515024 0.0340065 0.0263967 
0.0373151 0.0659642 0.0362985 
-0.0424793 0.0958739 0.0423242 
-0.0454824 0.0959409 0.0431744 
-0.0757523 0.0687815 0.0210323 
0.026785 0.0955535 0.0441601 
-0.00151332 0.104469 0.0441334 
-0.012488 0.107228 0.0430572 
0.0359077 0.111056 0.0244077 
-0.0344873 0.0959942 0.0440904 
-0.0474662 0.0960033 0.0439936 
0.0414143 0.104258 0.0111621 
0.0299119 0.0491593 0.0359714 
-0.0484883 0.0960313 0.0444485 
-0.0354974 0.0634085 0.0409173 
-0.0838169 0.107636 0.0253505 
0.045739 0.0876044 0.00618298 
-0.0534962 0.0959644 0.0436141 
-0.0574984 0.0959784 0.0439666 
-0.0614938 0.0959769 0.0438595 
-0.0141822 0.0378114 0.0510973 
-0.0511988 0.137011 0.0243968 
-0.0674874 0.0958602 0.0421807 
-0.0164962 0.0815146 0.0575151 
-0.0598164 0.122657 0.0415831 
-0.0194977 0.103001 0.0433214 
-0.0705026 0.0958452 0.0418601 
-0.050497 0.0987878 0.0435099 
0.0268698 0.0448976 0.0368034 
-0.0606527 0.151084 0.0352378 
-0.0512549 0.0612644 0.0318233 
0.0235041 0.108407 0.0388101 
0.0324864 0.115764 0.0245556 
0.022966 0.0347513 0.0194226 
-0.0926576 0.117463 0.0373027 
-0.0662078 0.0723697 0.0374848 
-0.0633414 0.0357702 0.0187502 
0.0335232 0.0673414 0.0396281 
0.0503819 0.0717878 0.00597587 
-0.0794885 0.131664 0.0524764 
0.0565843 0.0508466 0.00719292 
0.0363477 0.102053 0.0316389 
-0.0334992 0.0704401 0.0410454 
0.00751117 0.0575089 0.0530994 
-0.0618596 0.135275 0.0369058 
-0.0424838 0.105689 0.0405023 
-0.0661021 0.155727 0.025928 
-0.0794627 0.138625 0.0485832 
-0.0754126 0.068174 0.019879 
0.0422406 0.0986762 0.0221715 
-0.00548754 0.123746 0.0343085 
0.0437257 0.0902921 0.0241674 
-0.0178783 0.0381567 0.0189161 
0.00150103 0.0576486 0.0543674 
-0.074497 0.120396 0.0533632 
-0.0542572 0.149432 0.0265478 
0.0224755 0.0947811 0.0470955 
0.0214853 0.0948038 0.0473574 
0.0452046 0.0684536 0.0248447 
-0.0776802 0.121779 0.0520726 
-0.0325959 0.124521 0.0211556 
0.0194938 0.0948135 0.0473832 
-0.0676963 0.0648397 0.0261272 
0.0184887 0.0948214 0.0475148 
0.0247834 0.123596 0.021665 
-0.057716 0.154704 0.0245626 
0.0259209 0.122835 0.0206655 
0.0195403 0.0672509 0.0492981 
0.0542552 0.0478973 0.00920996 
0.0124807 0.0949598 0.0504131 
-0.0677451 0.0629578 0.0224748 
0.0114695 0.0949418 0.0507264 
0.00705252 0.0346309 0.0397936 
-0.0792715 0.107765 0.0320009 
-0.0261195 0.0706905 0.0432458 
-0.0134922 0.107228 0.0429665 
0.00249575 0.0952068 0.0540463 
-0.00249757 0.0952299 0.0546317 
0.0406981 0.104234 0.0181671 
0.020489 0.0906324 0.0482147 
0.0246952 0.0420222 0.0382704 
0.0392221 0.075321 0.0338531 
-0.00549683 0.095262 0.0547887 
-0.0791963 0.120405 0.0507691 
-0.0064991 0.0952675 0.0547927 
0.00948927 0.0976692 0.0490505 
-0.0275013 0.113896 0.0350206 
0.0277845 0.0849076 0.045525 
-0.00948994 0.0952069 0.0546127 
-0.0114897 0.0951792 0.0542781 
-0.0879532 0.117604 0.0468721 
0.00144942 0.127679 0.0289378 
0.00523694 0.126704 0.0302977 
-0.0508913 0.0474088 0.0186488 
0.00710349 0.126169 0.0309735 
-0.0133594 0.127978 0.0236019 
-0.0528867 0.0334295 0.0213081 
-0.0297787 0.125132 0.0177406 
-0.0265055 0.0946665 0.044662 
-0.0274872 0.094655 0.0450969 
-0.0631388 0.0620641 0.0242 
0.0274001 0.0354299 0.0197116 
-0.0294901 0.0946648 0.0450535 
0.0357585 0.0562848 0.0339755 
-0.0614955 0.104283 0.0410789 
-0.00349422 0.0718336 0.0581766 
-0.0334933 0.0946149 0.0444857 
0.0456785 0.0862046 0.0141695 
-0.016317 0.0384896 0.0261516 
-0.0344963 0.094609 0.0443801 
-0.089989 0.142041 0.0291697 
-0.0354827 0.0945899 0.0441989 
-0.0515081 0.0490357 0.0376444 
-0.0364793 0.0945677 0.0439429 
-0.0260706 0.125207 0.0176138 
-0.0225206 0.0919822 0.0517607 
-0.038479 0.0945169 0.0431902 
0.0536301 0.0568087 0.0282148 
0.0590094 0.0552651 0.0101755 
-0.0875501 0.120326 0.0478169 
-0.0454954 0.0945383 0.0433792 
-0.0494969 0.0946343 0.044743 
-0.0354688 0.0973337 0.0432864 
-0.0504886 0.0946205 0.0445363 
-0.0750369 0.0774854 0.0350522 
-0.0524967 0.0945727 0.0438723 
-0.0033633 0.038102 0.0128662 
-0.0568394 0.145329 0.0319256 
-0.0544999 0.0945829 0.0441089 
-0.0127602 0.0382241 0.0199007 
0.0136046 0.121889 0.0339065 
0.0249679 0.0605263 0.0447882 
-0.0565021 0.0946206 0.04473 
0.00849016 0.0441134 0.0451901 
-0.0584963 0.0946188 0.0448266 
-0.00348704 0.121028 0.0369539 
-0.0594974 0.0946317 0.0447571 
-0.0604857 0.094604 0.0446906 
-0.019905 0.038668 0.0324503 
-0.0788559 0.0706244 0.0187647 
0.0296356 0.107455 0.0360045 
-0.0614849 0.0946016 0.0445824 
-0.0704921 0.0944433 0.0420805 
-0.0095237 0.0431051 0.0494016 
-0.0404738 0.108409 0.038128 
-0.000498349 0.118323 0.0391474 
0.0494051 0.0734301 0.0147277 
-0.00951316 0.0575536 0.0537045 
0.00951738 0.0660057 0.0546772 
0.0318733 0.11664 0.0243218 
0.033406 0.0822268 0.04133 
0.00551724 0.0661119 0.0558057 
-0.0867687 0.111909 0.0232922 
-0.0494983 0.102885 0.0411106 
-0.0144971 0.0786767 0.0566892 
-0.0793348 0.0980896 0.0346601 
0.000499624 0.0661631 0.0564081 
-0.0444708 0.0888726 0.0431834 
-0.0744956 0.13026 0.0524093 
0.0214864 0.0934187 0.0477129 
-0.0104999 0.0842933 0.0575891 
-0.00950506 0.0660833 0.0554985 
-0.0134952 0.0659366 0.0537869 
0.0244048 0.112688 0.0354614 
0.00238035 0.127411 0.0292755 
-0.0741351 0.0860483 0.039718 
-0.00349112 0.118315 0.0390164 
-0.0226059 0.0381278 0.0251854 
-0.0586802 0.148237 0.034554 
0.0255211 0.116701 0.0317994 
-0.0697355 0.134074 0.048407 
-0.000500925 0.121055 0.0369996 
0.0255511 0.0463382 0.0384325 
-0.0384876 0.108386 0.0375357 
-0.00900002 0.1303 0.0121232 
-0.0718916 0.0995338 0.0398851 
0.000474346 0.0977989 0.0522897 
0.00761699 0.0345564 0.0219225 
0.0236525 0.124901 0.0169603 
0.0143125 0.129601 0.0135477 
0.026296 0.0862676 0.0469202 
-0.0562412 0.0479891 0.0306662 
-0.0705258 0.142815 0.0451961 
0.0361767 0.0888967 0.0383392 
-0.0608025 0.132515 0.0384279 
0.0604641 0.0623144 0.017179 
-0.026557 0.0646504 0.0393284 
0.0191819 0.123133 0.0296014 
-0.0424937 0.0748068 0.0427898 
-0.0304944 0.064586 0.038393 
0.00150188 0.0938741 0.0550191 
-0.0489061 0.0346101 0.0421693 
0.0111753 0.0766426 0.0548499 
-0.0528526 0.147782 0.0214111 
0.0142425 0.0645148 0.0521595 
0.00951185 0.0560842 0.0527429 
0.0386091 0.0686148 0.0346703 
-0.0164865 0.0730277 0.0553332 
0.0390213 0.100628 0.0284944 
-0.0394983 0.0719214 0.0419294 
-0.0544738 0.0624824 0.0299832 
-0.0693828 0.0805427 0.0408087 
-0.00102573 0.0346607 0.0434939 
0.0154998 0.108504 0.0406925 
-0.0631801 0.0406886 0.0415101 
0.0139278 0.129741 0.0148027 
-0.00749453 0.0952341 0.0547544 
-0.0354775 0.0932002 0.0444179 
-0.052462 0.0642313 0.0336351 
0.0263253 0.122966 0.0165355 
0.0214629 0.119376 0.0329783 
-0.00449913 0.108643 0.0435023 
-0.0899789 0.133805 0.0362152 
-0.046474 0.0903329 0.04369 
-0.00713141 0.127357 0.0287426 
-0.0521847 0.140082 0.0224024 
-0.0614531 0.154118 0.0305097 
0.0384949 0.0469555 0.0314897 
-0.0285 0.0960446 0.0448096 
-0.000497657 0.066177 0.0565989 
-0.0364959 0.0562316 0.0392716 
-0.0464641 0.122081 0.0270508 
-0.00350144 0.0675505 0.0564719 
0.0275361 0.10477 0.0382193 
-0.0700345 0.0631474 0.0200567 
0.013902 0.054865 0.0498147 
-0.0564664 0.0423189 0.0186897 
-0.0623633 0.0458155 0.0336786 
-0.0584862 0.0833066 0.0438144 
0.0405961 0.0624185 0.0297312 
0.0326457 0.113685 0.0274718 
-0.0075062 0.071811 0.0576623 
-0.0780694 0.106243 0.0333548 
0.000884291 0.038993 0.0274224 
-0.0155403 0.0446621 0.0510487 
0.0233245 0.0405792 0.0390844 
-0.0541027 0.122637 0.0375656 
-0.0454987 0.120637 0.0275066 
-0.0205115 0.114066 0.0379617 
0.0292092 0.0563773 0.0403225 
-0.0122404 0.0385117 0.0269697 
0.0431893 0.0764104 0.0272109 
0.006499 0.119638 0.036869 
0.00249824 0.119676 0.0375233 
-0.0623314 0.0357831 0.0433788 
-0.0314993 0.116609 0.0322344 
0.00651279 0.0647152 0.0557475 
-0.0755221 0.11896 0.0528247 
-0.00249995 0.0661849 0.0567093 
-0.0534986 0.0833862 0.0450488 
-0.0336992 0.0435791 0.0473765 
-0.00450514 0.0647631 0.0563697 
-0.0500211 0.0529295 0.0155558 
-0.0414965 0.0424145 0.0425934 
-0.0444607 0.0902688 0.0428496 
-0.0404538 0.105662 0.0393313 
-0.0424979 0.0817557 0.0420871 
0.0519418 0.0525693 0.0274887 
-0.0114811 0.0646532 0.0550744 
0.0346942 0.0401467 0.0260507 
0.0406411 0.0462159 0.0309092 
0.00183737 0.0373069 0.04638 
0.0129712 0.130228 0.0115965 
-0.0144784 0.0645279 0.0535035 
-0.0445007 0.0931064 0.043109 
-0.0134871 0.123689 0.0319378 
-0.0164763 0.064491 0.0530345 
-0.0174802 0.127364 0.0206736 
-0.00849618 0.0939016 0.0554996 
-0.0564742 0.041367 0.0464242 
-0.0180327 0.0404537 0.0526147 
0.0395325 0.105566 0.0221621 
-0.0826266 0.146034 0.0392943 
-0.0373724 0.0344314 0.0325332 
0.0343104 0.114465 0.0209626 
0.00249981 0.0938632 0.054785 
0.0397392 0.0658643 0.0327972 
-0.014506 0.114132 0.0394731 
-0.0248787 0.0796614 0.0530244 
0.0298088 0.0848631 0.0431899 
-0.0265303 0.0632322 0.0390504 
-0.0714928 0.117552 0.0529474 
-0.0354869 0.0903478 0.043788 
0.04335 0.0902653 0.0251673 
0.0289709 0.0848578 0.043728 
-0.0444648 0.0945053 0.0429498 
-0.00479304 0.130806 0.0179661 
-0.0275139 0.118013 0.031246 
0.0587114 0.0663183 0.00513779 
-0.00549453 0.0590678 0.0548923 
0.0361188 0.0794771 0.0382118 
0.0555795 0.068697 0.0240751 
-0.0894746 0.139279 0.0281819 
-0.078061 0.117721 0.0511362 
-0.0325077 0.0632413 0.0389915 
0.0117081 0.0589891 0.0519593 
-0.0640239 0.14106 0.0390925 
-0.033478 0.0632761 0.0395519 
0.0183954 0.0645286 0.0493775 
0.0365694 0.109049 0.0260841 
-0.037501 0.0634549 0.0414009 
0.0446243 0.0959671 0.00617079 
0.0131716 0.128382 0.0245166 
-0.00186878 0.0388962 0.0287527 
0.0153592 0.0953434 0.0487033 
0.0352594 0.113795 0.0141522 
-0.0183396 0.126605 0.021835 
0.0384287 0.064558 0.0344028 
0.00250286 0.0576093 0.0540213 
-0.0124997 0.0938947 0.0551641 
-0.0014976 0.0856652 0.0573264 
0.00748358 0.11412 0.0398951 
0.0352163 0.0367258 0.0146563 
0.0152433 0.0658912 0.0518711 
-0.0740765 0.0662649 0.0182774 
0.0458044 0.0834139 0.0161713 
-0.0413787 0.124797 0.0224172 
-0.0591643 0.0341749 0.0263998 
-0.053498 0.0465766 0.0420409 
-0.00947876 0.108641 0.0432746 
0.029005 0.0699505 0.0419019 
0.0191993 0.0352366 0.0345338 
-0.0364993 0.0733348 0.0420574 
-0.054498 0.111159 0.0367038 
-0.0578658 0.154169 0.0274197 
-0.0199616 0.0697296 0.0526775 
0.0458812 0.084809 0.00618736 
-0.0304745 0.0860755 0.0433189 
-0.0258758 0.0578187 0.0391737 
-0.00263717 0.12924 0.026005 
-0.0704838 0.120388 0.0533274 
-0.0124895 0.119639 0.0367572 
0.0157166 0.0461353 0.0435597 
0.048793 0.049707 0.0281736 
-0.0481741 0.135565 0.0182752 
-0.0842691 0.117693 0.0488129 
0.0385027 0.0454964 0.0307784 
0.016916 0.0577101 0.0489225 
0.0476579 0.0715472 0.019969 
0.0105059 0.0348976 0.020389 
-0.000203909 0.130048 0.0239772 
0.0603302 0.0678632 0.0121432 
0.0526679 0.0554283 0.0285725 
-0.0684956 0.0958684 0.0422138 
-0.0940215 0.120122 0.0233001 
-0.0278605 0.124718 0.0184442 
0.0361622 0.075448 0.0382492 
0.0190348 0.0768352 0.0521916 
-0.0193751 0.0711448 0.0534686 
0.00542741 0.0336773 0.0131964 
0.0444927 0.0610909 0.0304355 
-0.0314795 0.0774889 0.0410863 
-0.00849376 0.0576353 0.0542501 
0.00300687 0.0991424 0.049182 
0.0374928 0.0498822 0.031843 
-0.0125327 0.0502379 0.050201 
0.015473 0.0962531 0.0481291 
-0.00849115 0.111421 0.0423213 
-0.0736149 0.155479 0.0262237 
-0.00749813 0.125151 0.0317009 
-0.0153828 0.128676 0.0170423 
-0.0214945 0.10716 0.0418366 
-0.060041 0.155524 0.0222725 
-0.00548988 0.121033 0.0366102 
-0.0215102 0.0435311 0.0534788 
0.0259161 0.0713197 0.0444841 
-0.0475948 0.0403553 0.044655 
-0.0898767 0.135147 0.0252168 
-0.0621134 0.0350003 0.0423988 
-0.0435026 0.0465062 0.0407289 
0.0121624 0.129948 0.0198557 
-0.066502 0.0889512 0.0442634 
0.001497 0.119685 0.0377723 
-0.0291057 0.0349617 0.0478282 
-0.0548348 0.124111 0.0382711 
0.0172046 0.061784 0.0493931 
0.0556876 0.0493473 0.0181935 
-0.0465484 0.0404249 0.0444582 
0.00451348 0.0633892 0.056472 
0.0429689 0.0696277 0.0268653 
-0.0625935 0.12412 0.0446596 
-0.0908528 0.131057 0.0322319 
-0.0434867 0.0959016 0.0426578 
-0.00149888 0.0634085 0.0566876 
-0.00549722 0.0633676 0.0561862 
-0.0524537 0.0504524 0.0306643 
-0.00548585 0.118301 0.0387556 
-0.0897054 0.124293 0.0455762 
-0.0164541 0.0630817 0.0527623 
0.000499004 0.0634057 0.0567297 
-0.0850979 0.131233 0.0492505 
-0.0578054 0.142438 0.0322424 
0.00969178 0.121836 0.0352946 
0.0288769 0.120252 0.0217702 
-0.0604932 0.155795 0.0206537 
0.00144074 0.0344391 0.0153316 
-0.0374965 0.120729 0.0294163 
0.0281029 0.0968693 0.0425418 
0.02366 0.0848996 0.0483924 
-0.0464696 0.0675313 0.0396048 
0.00969167 0.0357093 0.0447693 
0.0108694 0.130662 0.0179509 
-0.0817224 0.125902 0.0520643 
-0.071511 0.0930107 0.0417462 
-0.0354995 0.0619703 0.0405316 
-0.0161975 0.0432999 0.0517769 
-0.054132 0.143048 0.0274248 
0.0274474 0.0591653 0.0430806 
-0.0794167 0.137236 0.0495785 
0.0275416 0.0349624 0.00541796 
-0.036486 0.0619956 0.0409573 
0.0573405 0.0635192 0.0248021 
-0.0565657 0.11693 0.0374284 
0.0277273 0.0646184 0.0435417 
-0.0394989 0.0620307 0.0413298 
-0.0774938 0.134462 0.0515018 
-0.0215106 0.119492 0.0328652 
-0.0718118 0.14996 0.0389054 
-0.0489315 0.137078 0.0173942 
-0.0731223 0.134062 0.0505767 
-0.00250336 0.0633801 0.0564795 
0.0174985 0.119533 0.0343583 
0.0586637 0.0709935 0.0122726 
0.0391956 0.0712805 0.0337887 
0.017486 0.112589 0.0378808 
0.00650044 0.0910463 0.0545358 
-0.0516467 0.0481272 0.0388737 
0.0566532 0.0608369 0.0255651 
-0.0127855 0.0392769 0.0369668 
-0.0495075 0.0490436 0.0377607 
0.0503974 0.0595708 0.0303584 
-0.0877693 0.113692 0.0289151 
-0.0114896 0.0560578 0.0523304 
-0.0697849 0.145343 0.0431021 
0.0359903 0.0834983 0.0380665 
-0.0636379 0.131123 0.0413473 
0.0495183 0.0596792 0.0306871 
-0.0651094 0.121429 0.0498115 
0.0165486 0.0631544 0.0502063 
-0.0074894 0.104457 0.0437929 
-0.0304972 0.101559 0.0427282 
0.0413201 0.104267 0.012164 
0.0424994 0.0597124 0.0306347 
-0.00349688 0.0633763 0.0563118 
0.0395317 0.0596774 0.0306966 
0.0131577 0.0548631 0.0504935 
-0.0182235 0.123174 0.0292543 
0.0310626 0.107429 0.0345663 
0.00749696 0.119642 0.0368719 
-0.0807235 0.116228 0.0481624 
0.0289756 0.116666 0.0289439 
-0.0529166 0.0566407 0.0191372 
-0.0164672 0.0659336 0.0534892 
-0.0434926 0.0789866 0.0425224 
-0.083006 0.110313 0.0398706 
0.00750831 0.0772509 0.056126 
0.0184956 0.0962193 0.0472822 
-0.00349567 0.0504603 0.052334 
0.0293349 0.108769 0.0355782 
-0.00848516 0.121007 0.0363393 
0.0317135 0.0955631 0.0407455 
0.0189959 0.104672 0.0434338 
-0.0155087 0.105817 0.0426846 
-0.0646921 0.0617226 0.0224003 
0.00650419 0.123782 0.0339598 
-0.0610541 0.068813 0.0363796 
0.0347021 0.0768104 0.0396564 
-0.0144951 0.119623 0.0361429 
0.039324 0.106993 0.0191699 
0.00552678 0.0619607 0.0559576 
-0.041491 0.0832013 0.0425516 
-0.0494324 0.0586474 0.0343285 
0.0484971 0.0678077 0.0264809 
-0.0424866 0.0396651 0.043393 
0.00250176 0.0620246 0.0566613 
-0.0464848 0.12067 0.0277891 
-0.0755038 0.138646 0.0489499 
-0.00448954 0.122402 0.0358368 
0.00049039 0.0952019 0.0544773 
-0.0680095 0.151244 0.0371953 
-0.0604964 0.0861621 0.0446513 
-0.0649916 0.0659907 0.0309635 
0.0379386 0.07401 0.0354837 
-0.00421023 0.0383902 0.0178766 
0.0404449 0.0739232 0.0320846 
-0.0801184 0.0845811 0.0344552 
-0.00249339 0.0619776 0.0560364 
-0.0358314 0.0356542 0.0457978 
-0.0913446 0.12833 0.0392393 
-0.0111634 0.0391658 0.035606 
0.0215152 0.0795452 0.0505127 
-0.0134899 0.0951663 0.0534531 
-0.00649716 0.0619561 0.0561245 
-0.00350265 0.0689326 0.0566398 
-0.0567258 0.0480405 0.0316684 
-0.0094927 0.0619497 0.0558121 
-0.0428468 0.0368545 0.044028 
-0.0294922 0.102919 0.0420695 
0.0390362 0.0980073 0.030266 
0.00848559 0.0950467 0.0516302 
0.0442088 0.0931449 0.0211603 
0.0406295 0.0806796 0.0323988 
-0.0247271 0.0564997 0.0408849 
-0.0114833 0.0618754 0.0549615 
0.027252 0.0549488 0.0409918 
-0.0549619 0.14242 0.0292765 
-0.0482032 0.131003 0.0267578 
-0.0144795 0.0617481 0.0535104 
0.0296013 0.119582 0.02204 
0.0374138 0.110303 0.0192381 
-0.0154642 0.0617228 0.0531313 
-0.0274517 0.043312 0.0519115 
0.0390778 0.105565 0.0241719 
0.0316414 0.11271 0.0301021 
-0.0144799 0.123658 0.0314246 
0.00350403 0.0533854 0.0535456 
-0.0821777 0.153468 0.0263012 
-0.089228 0.114813 0.0276717 
0.0204347 0.103384 0.043762 
-0.0725172 0.105485 0.0374705 
0.0281636 0.121218 0.0186511 
0.035443 0.111045 0.0256623 
0.0144999 0.10985 0.0401157 
-0.00779065 0.130523 0.0125627 
-0.0799475 0.0796892 0.0318714 
-0.0356589 0.0394362 0.046602 
-0.0596993 0.0345337 0.0416145 
-0.0531345 0.0641573 0.0333061 
-0.00349611 0.0897823 0.0565938 
-0.0216341 0.038095 0.0200103 
-0.0725041 0.146981 0.0423864 
-0.013551 0.0588296 0.0525443 
0.0332816 0.116574 0.0106008 
-0.0895642 0.139283 0.0271809 
-0.033511 0.104273 0.0404948 
0.0384903 0.0499056 0.0320993 
-0.0525195 0.0426931 0.0456595 
-0.0825182 0.0816676 0.0298907 
-0.0786032 0.107051 0.0327104 
0.00348766 0.115539 0.0402625 
-0.034478 0.0590226 0.0391844 
-0.0744896 0.128852 0.0526631 
0.000510392 0.0689287 0.0563645 
0.0174851 0.0852069 0.0507856 
-0.0463407 0.0629206 0.0382092 
-0.0575 0.0588269 0.0212602 
-0.00327736 0.0410332 0.0476549 
-0.00249278 0.121064 0.0370013 
0.00750533 0.0660627 0.0552439 
0.0418343 0.0943991 0.0271656 
-0.0791517 0.0792478 0.0324066 
-0.0851812 0.137956 0.0449006 
0.00160174 0.0351275 0.0454175 
-0.00149662 0.114206 0.0415504 
0.00549435 0.0474709 0.0500045 
0.0475195 0.0583521 0.0315949 
0.0465079 0.0583728 0.0318256 
0.0444976 0.0583814 0.0318302 
0.0414985 0.058326 0.0311197 
-0.0125037 0.0730609 0.0559849 
0.00548706 0.108567 0.0416722 
0.0597202 0.067814 0.0181758 
-0.0171539 0.0347559 0.0453522 
-0.0244999 0.049902 0.0466266 
0.0405223 0.0582848 0.0307512 
-0.0394877 0.095879 0.0424449 
0.0264379 0.0968548 0.0436578 
-0.0201874 0.0711262 0.0528634 
0.0385114 0.0583288 0.0314228 
0.0128784 0.0534523 0.0500797 
-0.0449304 0.0643377 0.0396087 
-0.0594987 0.0932573 0.0451741 
-0.0263289 0.0434924 0.0526862 
-0.0364902 0.0634253 0.0412069 
-0.0325124 0.113906 0.0343195 
-0.0640233 0.0347562 0.0388023 
-0.010476 0.0965182 0.0531854 
-0.088699 0.0915828 0.0224195 
0.0434928 0.0597185 0.030951 
0.0589161 0.0621713 0.00415053 
-0.0635003 0.0931972 0.0443921 
-0.0310521 0.0450006 0.0489427 
-0.0614977 0.108395 0.0385563 
0.0184606 0.0475775 0.0422564 
-0.0815821 0.0803018 0.0303913 
-0.0624532 0.126929 0.0430601 
-0.090134 0.132434 0.0362229 
-0.0834511 0.149763 0.0335021 
-0.00449169 0.0575673 0.0538908 
-0.0857415 0.120359 0.048887 
-0.0384898 0.113893 0.0344296 
-0.00649785 0.0801379 0.0576218 
0.0104979 0.0896334 0.054299 
0.00550054 0.0990386 0.0482677 
-0.0474987 0.0987688 0.0431343 
0.0400371 0.107017 0.0091647 
-0.0074916 0.0518487 0.0520774 
-0.0458599 0.129594 0.0221735 
-0.00267498 0.100539 0.0471075 
-0.0206549 0.0768238 0.0545752 
-0.00650337 0.0633626 0.0562557 
-0.0554962 0.0904299 0.0451691 
-0.073067 0.0692219 0.0282366 
0.0407791 0.105635 0.00716484 
-0.0743754 0.0995209 0.0381506 
-0.0455015 0.115241 0.0333765 
0.0392931 0.086096 0.0340337 
0.0137867 0.0377633 0.0443361 
-0.0561131 0.145329 0.0311927 
-0.0214979 0.120818 0.0311972 
-0.00712049 0.126279 0.0302479 
-0.0848818 0.142006 0.0416598 
0.0283827 0.10475 0.0376855 
-0.0745865 0.0720219 0.0307608 
0.0247695 0.1047 0.0394768 
-0.0162922 0.125122 0.0270033 
-0.00149388 0.0787876 0.0581499 
-0.0839857 0.132609 0.0495198 
-0.0906919 0.142015 0.0231619 
-0.0655034 0.108381 0.0382088 
-0.0164899 0.0602176 0.0520938 
0.0044963 0.0605551 0.0556784 
0.0109848 0.123169 0.033628 
0.002504 0.0605716 0.0560843 
0.000505152 0.0675448 0.0563482 
-0.0675837 0.112197 0.043642 
-0.0834627 0.110719 0.0412267 
-0.0473098 0.0390167 0.04506 
-0.0752579 0.0874199 0.0393733 
-0.0314973 0.0746234 0.0406619 
0.0475192 0.0568404 0.0316921 
-0.00749367 0.0605601 0.0556586 
0.0557201 0.0581302 0.0259556 
-0.00950118 0.06052 0.0554819 
-0.0317094 0.0374952 0.0310681 
0.0144891 0.0990552 0.047648 
-0.0144969 0.0814706 0.0569355 
-0.0818952 0.134036 0.0502533 
-0.0404955 0.0451407 0.0414639 
-0.0144773 0.0603048 0.0528052 
0.0306109 0.0549842 0.038821 
-0.0683872 0.0690317 0.0328821 
0.0246987 0.1167 0.0323736 
0.00748827 0.048894 0.0505047 
0.0203519 0.0506032 0.0432764 
-0.0636022 0.151642 0.0357576 
-0.0231171 0.0347933 0.0492623 
-0.0690092 0.122845 0.052951 
-0.0845844 0.121705 0.0490448 
-0.0459209 0.0346888 0.0375199 
-0.0570356 0.142438 0.0315884 
-0.0266186 0.0589226 0.0382515 
-0.090178 0.113449 0.0375353 
-0.0589753 0.0343808 0.0315144 
0.0236407 0.0347514 0.0177381 
-0.0244818 0.0988555 0.0446892 
-0.0174998 0.0772311 0.0559767 
0.04086 0.101423 0.0231764 
-0.00450341 0.0703715 0.0573471 
0.0424926 0.0583469 0.0313486 
-0.0893812 0.113196 0.0217139 
0.00773558 0.128847 0.0268569 
-0.0267255 0.0380235 0.0244373 
-0.0832566 0.147367 0.0370632 
-0.041507 0.0591281 0.0403212 
-0.00749309 0.114174 0.0409291 
-0.00249513 0.0774404 0.0585569 
0.00849738 0.0910108 0.0540495 
-0.0454899 0.0690197 0.0407796 
-0.00815712 0.126302 0.0298556 
-0.0434944 0.0733818 0.0425428 
-0.00949656 0.0471698 0.047803 
0.044036 0.0973464 0.00517085 
-0.0254563 0.120601 0.0288472 
0.00150975 0.0474485 0.049901 
0.00224686 0.131192 0.0191047 
-0.00149547 0.119691 0.0381347 
-0.0796264 0.106117 0.031567 
0.0135076 0.115425 0.0371825 
-0.052704 0.143169 0.0214165 
-0.0175125 0.109971 0.0410978 
-0.0532397 0.146242 0.0224016 
0.0394644 0.107011 0.0181712 
0.0121385 0.130422 0.0141392 
0.0146499 0.0699433 0.0528108 
-0.00209707 0.130745 0.0203917 
-0.0174947 0.0815257 0.0576296 
-0.0364777 0.0491722 0.0391199 
0.00351191 0.0459363 0.0483003 
0.0569193 0.0710092 0.00714855 
0.0196453 0.0521206 0.045827 
-0.0570813 0.0344654 0.0405363 
-0.0657901 0.128396 0.0470862 
0.0465619 0.0568462 0.0320779 
-0.0642323 0.124186 0.0475964 
0.0271142 0.0463333 0.0371793 
0.0444988 0.0569914 0.0320977 
-0.0913439 0.11607 0.03131 
-0.0474934 0.115292 0.0331905 
-0.0816839 0.0830971 0.0318157 
-0.0723024 0.111428 0.0467445 
0.00949781 0.0440631 0.0448456 
-0.00219357 0.131295 0.0117423 
-0.0345743 0.120058 0.0294165 
0.0478387 0.0734572 0.0126134 
-0.076548 0.0954614 0.0376104 
-0.0102366 0.125327 0.0306172 
-0.0646199 0.0359342 0.0410351 
-0.0484986 0.0425777 0.0442245 
-0.00350013 0.0801522 0.057807 
0.0354218 0.100763 0.0338403 
0.0167493 0.127305 0.0229819 
0.0204946 0.0878829 0.0490965 
-0.0104877 0.105844 0.0434252 
-0.0492065 0.128269 0.0305743 
-0.0588992 0.0593658 0.0203903 
0.0292794 0.111414 0.0337321 
0.00650269 0.044152 0.0457422 
-0.0588484 0.13671 0.0342246 
0.0186534 0.103359 0.0446898 
-0.0194949 0.122198 0.0303074 
-0.00415334 0.0367895 0.0481682 
-0.0268179 0.0735627 0.0438663 
-0.0524335 0.115217 0.0341034 
0.0344154 0.0409101 0.0271225 
-0.0694864 0.116115 0.0518347 
-0.0495023 0.0862453 0.0455995 
-0.0424856 0.0410553 0.0431368 
0.0065365 0.100373 0.0469448 
0.0148515 0.129255 0.0180171 
-0.0655517 0.155937 0.0246661 
-0.0165005 0.120964 0.0336371 
-0.0458268 0.125298 0.0247658 
-0.0498767 0.0529199 0.0166388 
-0.0928216 0.122866 0.0342742 
0.00950273 0.0546854 0.0525766 
0.00206776 0.0348089 0.0386094 
0.0085002 0.0589241 0.0531764 
0.00548498 0.0590856 0.0545593 
0.0206219 0.119357 0.0335278 
0.0303372 0.119206 0.0194646 
-0.0682478 0.066271 0.0282875 
-0.0404897 0.0874362 0.0429424 
0.0154483 0.127759 0.0239281 
-0.0426342 0.12559 0.0204963 
-0.00349748 0.0870382 0.0570453 
0.0132667 0.0519749 0.0488584 
-0.00949444 0.063336 0.0558203 
-0.0621222 0.0345142 0.0394173 
-0.0645154 0.121409 0.0489254 
-0.036476 0.0533606 0.0387027 
-0.0788525 0.107465 0.0324362 
0.0159735 0.0448127 0.0438765 
0.0272712 0.0929162 0.0448522 
-0.0125152 0.0589286 0.0534547 
0.0116725 0.130674 0.0125466 
-0.00448593 0.118295 0.0389891 
-0.0593593 0.0651443 0.0328932 
0.0120392 0.129427 0.0226627 
-0.0552402 0.138165 0.0306253 
-0.00452146 0.0443187 0.0472734 
0.0534095 0.0553934 0.0278769 
-0.0789903 0.0900056 0.0359819 
-0.0345208 0.0633716 0.0403553 
0.0320331 0.117177 0.0215305 
0.0214843 0.092023 0.0479434 
-0.0685122 0.141137 0.0449382 
0.00251304 0.0828672 0.0572444 
0.0220436 0.125932 0.0163676 
0.0527588 0.0510331 0.0250995 
-0.0474843 0.0818872 0.0439119 
-0.0928746 0.122834 0.0282828 
0.0129121 0.0806948 0.0538726 
-0.0704857 0.116111 0.0520944 
-0.0598599 0.0358888 0.0454954 
0.0373383 0.0740435 0.0363986 
-0.00549585 0.0911858 0.0567127 
-0.0415058 0.0577139 0.0401965 
-0.0837086 0.0952625 0.0306499 
-0.0675133 0.108346 0.0377589 
-0.0805747 0.154604 0.0238516 
-0.0675175 0.146991 0.0409028 
0.0410972 0.0779427 0.031296 
-0.029988 0.0381577 0.0326274 
-0.00649976 0.0842428 0.0569087 
-0.0234882 0.104381 0.0428298 
0.00609443 0.127443 0.0291456 
-0.0251991 0.0536651 0.0400375 
-0.0495176 0.0451863 0.0426306 
-0.0515122 0.0598238 0.030703 
-0.00951396 0.0647096 0.055646 
0.0415962 0.101461 0.0191676 
-0.0506614 0.0515945 0.0196285 
0.0154995 0.111258 0.0392925 
0.0218954 0.061892 0.0473866 
-0.0794975 0.133078 0.0519067 
0.0384382 0.0954258 0.0328906 
0.0553581 0.0524903 0.0236336 
-0.0294956 0.0660091 0.0384906 
0.0461466 0.0773319 0.0190905 
-0.058497 0.0904388 0.0452323 
0.0191581 0.0357679 0.0376614 
0.0108601 0.117776 0.0369396 
-0.0653727 0.074532 0.0393295 
0.0190263 0.120653 0.0329746 
0.0465727 0.0554592 0.0320923 
0.0398757 0.096658 0.0297176 
-0.040496 0.0577326 0.0402811 
0.0299951 0.111426 0.0329993 
-0.0289488 0.0487095 0.0453204 
-0.0312754 0.118165 0.0306394 
0.0451235 0.093189 0.0121575 
-0.0664749 0.0875478 0.0443297 
-0.0728736 0.0659781 0.0205309 
-0.00649656 0.0856337 0.0569558 
-0.076476 0.07597 0.0322323 
-0.0204551 0.0879984 0.0554627 
0.0222628 0.0359732 0.0163557 
-0.0478366 0.133877 0.0213554 
-0.0184702 0.0959697 0.0503933 
0.013384 0.078066 0.0545225 
0.0404941 0.0555582 0.0318463 
0.0214723 0.0878669 0.0490265 
0.00557978 0.101599 0.0456072 
0.0181885 0.053509 0.04724 
-0.0229394 0.0985982 0.0448104 
0.040798 0.105646 0.00916422 
-0.0654906 0.102864 0.0410679 
0.00850062 0.121038 0.0360118 
-0.00601771 0.0990415 0.0504631 
0.0601048 0.0608967 0.00715985 
-0.0582589 0.129739 0.0385905 
0.0451952 0.0433405 0.023507 
-0.0404996 0.0591463 0.0404229 
0.0230588 0.0463265 0.0401038 
0.0339681 0.114736 0.0222644 
-0.0922724 0.125575 0.0332589 
-0.0424671 0.124776 0.022048 
-0.0425018 0.0506116 0.0394181 
-0.032492 0.0746402 0.0409516 
-0.0265289 0.11806 0.03154 
-0.0241621 0.125878 0.0168174 
0.0357221 0.0994501 0.0342567 
-0.0636966 0.117092 0.044917 
-0.0264922 0.0447022 0.0511549 
-0.00849121 0.103027 0.0437022 
-0.0865771 0.124349 0.048115 
-0.00249775 0.0787967 0.0582683 
-0.06623 0.13826 0.0429445 
-0.0174938 0.122238 0.0311921 
-0.0184879 0.122208 0.0309285 
-0.0920057 0.11611 0.0343124 
0.0112751 0.0505364 0.0494832 
-0.00534534 0.0423344 0.0481709 
0.00550295 0.0702783 0.0558582 
0.00952232 0.057476 0.0527668 
-0.00349601 0.0619414 0.0556852 
-0.00795135 0.129264 0.0240771 
0.0230994 0.0700125 0.0474321 
-0.0821806 0.0776422 0.0235195 
0.0314957 0.0386039 0.0249642 
-0.0124951 0.0925417 0.056096 
-0.0537709 0.0460941 0.0150722 
-0.0288195 0.0384506 0.0326078 
-0.0054972 0.0576157 0.054162 
-0.00850113 0.0633575 0.0560799 
0.0424555 0.0902012 0.0271644 
-0.0694944 0.11756 0.0525327 
-0.00749701 0.0576432 0.054379 
-0.0604952 0.0932426 0.0451145 
-0.050201 0.0344166 0.0315946 
0.0384483 0.10837 0.0201721 
-0.0550494 0.0577849 0.0202145 
0.0204519 0.0357096 0.00704168 
-0.0606083 0.118309 0.0403758 
-0.00617289 0.130741 0.0117189 
-0.00652053 0.0688834 0.0561767 
-0.0454908 0.0987379 0.0426533 
-0.0544966 0.0791235 0.0440855 
-0.0154965 0.0573571 0.0513792 
-0.0034975 0.0661744 0.0565538 
-0.0544961 0.0732542 0.0409056 
0.0306925 0.119003 0.0181751 
-0.027486 0.0646029 0.0384895 
-0.0105693 0.129741 0.0187791 
0.0130152 0.130057 0.0144613 
-0.0135041 0.11966 0.0364252 
-0.0434723 0.0647942 0.0406198 
-0.0414812 0.0634467 0.0412468 
-0.087519 0.112 0.0410625 
0.00451352 0.10035 0.0463879 
-0.0171133 0.0390763 0.0521827 
-0.0384905 0.0591295 0.0404813 
-0.0581184 0.132538 0.0370402 
0.00550113 0.0883518 0.0561015 
0.019505 0.108463 0.0397034 
-0.0474749 0.0945717 0.0440635 
0.0350602 0.0968439 0.0368099 
0.011503 0.108488 0.0403225 
-0.0818191 0.154205 0.0234297 
-0.0515486 0.141607 0.0193759 
0.0238752 0.0421864 0.0394869 
-0.0554898 0.041398 0.0465154 
0.0577131 0.0523367 0.00917793 
-0.0195075 0.0512747 0.046374 
0.0394316 0.0807401 0.0342345 
-0.0494929 0.0804959 0.044039 
-0.0334912 0.0604137 0.038899 
0.0149217 0.127634 0.0251635 
-0.0893654 0.145802 0.0291185 
0.0224815 0.0892515 0.0484736 
-0.0878532 0.127045 0.0464651 
0.0134971 0.112635 0.0387508 
-0.0735009 0.117559 0.0527975 
-0.034501 0.115223 0.0328885 
-0.046245 0.034596 0.0410145 
0.0103588 0.130588 0.0191927 
-0.0294988 0.0559628 0.0364214 
-0.0314956 0.0560344 0.0371147 
-0.0372574 0.124492 0.0238955 
-0.00523048 0.0381888 0.0482681 
0.0215692 0.0352857 0.025924 
-0.0494996 0.0791204 0.0440794 
0.0154945 0.115387 0.0371086 
-0.0364943 0.115224 0.0327734 
-0.0853906 0.110991 0.0352247 
-0.0324882 0.0560654 0.0375153 
-0.0931568 0.120191 0.0362904 
0.00449835 0.0590783 0.0547231 
-0.042508 0.0562794 0.0398023 
0.00112155 0.035712 0.0195623 
0.0454971 0.0861837 0.00419421 
0.0140119 0.072675 0.0536492 
-0.0385075 0.0888951 0.0435504 
-0.0354987 0.113848 0.0338946 
-0.0170948 0.127006 0.022289 
-0.0350351 0.0408695 0.0473482 
-0.0175443 0.0460366 0.0510389 
-0.066041 0.156288 0.0201296 
-0.0305081 0.109824 0.0377476 
-0.0734653 0.11597 0.0519419 
-0.0174971 0.101623 0.0437353 
-0.081904 0.115723 0.0482136 
-0.000496937 0.0620135 0.0565388 
-0.0345243 0.0619374 0.0399691 
0.0353716 0.0741014 0.0388421 
0.048778 0.0525636 0.0299433 
-0.0482692 0.133969 0.0226705 
-0.0696323 0.156261 0.0232204 
0.0232083 0.0449556 0.0403488 
-0.024201 0.0373653 0.0542269 
0.00136992 0.128685 0.0274437 
-0.0504991 0.105636 0.0396146 
-0.00949915 0.105857 0.0435217 
-0.0224613 0.12203 0.0284859 
0.0135799 0.0887495 0.0531421 
0.0175395 0.0364962 0.0420884 
0.0224894 0.0906371 0.0481279 
-0.0883977 0.0983242 0.022387 
0.0455381 0.0540654 0.0323771 
-0.0533452 0.118341 0.0350731 
-0.031463 0.0519033 0.0373773 
0.0435838 0.0705579 0.0258591 
-0.0344943 0.0718865 0.0415833 
-0.049499 0.112564 0.0357174 
-0.0415061 0.0620057 0.0410722 
-0.0324803 0.0436623 0.0489836 
0.0392263 0.0874331 0.033936 
-0.0105064 0.0884021 0.0567868 
0.0404914 0.0541681 0.032094 
0.00754987 0.100371 0.0472771 
-0.00451076 0.0788064 0.0581316 
0.0455013 0.0583861 0.0319381 
0.0105257 0.123354 0.0336723 
-0.0525421 0.050441 0.0296546 
0.00250363 0.0489881 0.0513443 
-0.0734876 0.127439 0.0525898 
0.0365178 0.0541167 0.0317039 
0.00351301 0.0828608 0.0571024 
-0.0461819 0.130936 0.0220239 
-0.0321679 0.120788 0.027294 
-0.0154945 0.0925097 0.0555061 
-0.0494951 0.0819134 0.044146 
0.0359645 0.0981106 0.0346243 
-0.0537144 0.0491343 0.0296614 
-0.0784667 0.141403 0.0468168 
-0.0574179 0.0608499 0.024689 
0.0157394 0.128861 0.0183169 
0.0169866 0.0348952 0.0343866 
-0.0761401 0.0728821 0.0296904 
-0.0465015 0.0689677 0.0402969 
0.0113423 0.0644371 0.0532354 
0.0152498 0.0348445 0.0304622 
-0.0324852 0.0946249 0.0445277 
-0.0226305 0.0710127 0.0496427 
-0.059344 0.139552 0.0335155 
0.0563556 0.0723446 0.0173318 
0.00550628 0.0441375 0.0457857 
-0.0856485 0.103181 0.0252723 
-0.0871923 0.0861012 0.021463 
0.0217235 0.120687 0.0315848 
-0.00104546 0.0391448 0.0323048 
0.0250243 0.0618819 0.0448807 
-0.0492123 0.134029 0.0252722 
-0.0276074 0.0356491 0.0527176 
-0.0434818 0.0902492 0.04268 
0.00248459 0.114158 0.0410016 
-0.0294959 0.0645466 0.0380401 
-0.0631289 0.155254 0.0269868 
0.0023439 0.122378 0.0350184 
0.0521064 0.0510719 0.0259326 
0.00349789 0.122445 0.0347995 
-0.0192664 0.0381478 0.0114056 
0.0275411 0.044881 0.0360262 
-0.0395435 0.101505 0.0409276 
-0.0705079 0.105505 0.0376955 
-0.0145604 0.127706 0.0231688 
-0.0263102 0.123352 0.021955 
-0.0816501 0.131466 0.0516979 
0.0045023 0.122399 0.0348631 
0.00851416 0.06604 0.0550264 
-0.0692254 0.124258 0.0526584 
-0.0264983 0.10435 0.041876 
0.0270421 0.0862601 0.0462384 
-0.0567225 0.0423764 0.0206991 
-0.0164902 0.112704 0.0398029 
-0.0335046 0.109774 0.0374515 
0.00854197 0.104373 0.044167 
0.0148253 0.0447411 0.0439981 
-0.0305143 0.0348089 0.0211376 
0.0164932 0.112605 0.0382483 
0.0379749 0.0374097 0.0109015 
0.0373115 0.0673123 0.0362946 
-0.0871035 0.11231 0.0319974 
-0.069435 0.0972593 0.0417284 
-0.0305056 0.115271 0.0335326 
0.0524464 0.0649582 0.0280392 
-0.0195067 0.119545 0.0340058 
-0.0883316 0.128385 0.0454834 
-0.0114972 0.0870124 0.0568248 
-0.0935435 0.118764 0.0233045 
0.00150976 0.0562224 0.0541662 
-0.0314959 0.111117 0.0366419 
0.0354985 0.0483762 0.03122 
-0.000496913 0.056284 0.0547664 
0.0162926 0.0348913 0.030635 
0.0484686 0.0511467 0.0294828 
0.0242996 0.120934 0.0286395 
0.0434078 0.0958974 0.0221477 
0.0106021 0.12463 0.0322012 
0.0154861 0.0927165 0.0506449 
-0.0391365 0.0406682 0.0418102 
-0.00349598 0.0562185 0.05401 
0.0259452 0.0364961 0.0239139 
-0.0618119 0.115344 0.0386033 
-0.0464862 0.0718998 0.0415251 
0.0409151 0.0390283 0.00994476 
-0.00450247 0.056202 0.0539356 
-0.019502 0.109944 0.0407387 
-0.0876525 0.145908 0.0330215 
0.0262873 0.0942382 0.0451936 
0.0134882 0.101805 0.0472084 
-0.0223265 0.0696009 0.0493961 
0.00617007 0.126444 0.0306412 
-0.059392 0.149673 0.0353015 
0.0289099 0.0929198 0.0437028 
-0.0464486 0.0959731 0.0434949 
-0.00549337 0.088417 0.0570387 
0.0327921 0.0889736 0.0422708 
0.0554262 0.0714159 0.00640835 
-0.0151406 0.126373 0.0259068 
-0.0124902 0.0560062 0.0517339 
-0.0911579 0.129687 0.0342384 
-0.0144925 0.0559441 0.0511232 
-0.0333921 0.126443 0.0164188 
-0.0733475 0.129801 0.0519745 
0.0100662 0.0792875 0.0550109 
-0.0215406 0.0711033 0.0513847 
-0.0204789 0.081458 0.0566556 
0.0394095 0.0793879 0.0341721 
-0.0517809 0.138537 0.023394 
-0.0441667 0.0657175 0.0402548 
-0.0695102 0.148387 0.0405048 
-0.064559 0.11407 0.0417666 
-0.010497 0.0717087 0.0563199 
0.0239959 0.0549509 0.0433236 
-0.052497 0.108432 0.038849 
-0.0274456 0.0382197 0.0539829 
-0.0364861 0.0547872 0.0389196 
-0.03748 0.0548048 0.0392179 
-0.0404982 0.0548597 0.0396645 
-0.0415045 0.0548576 0.0396938 
-0.0681397 0.0738079 0.0376094 
0.0488271 0.0733963 0.0130056 
-0.065267 0.132559 0.042478 
0.0135718 0.0504901 0.0475195 
0.0432951 0.0987146 0.0161577 
-0.0719688 0.147362 0.0419058 
-0.0667166 0.136853 0.0439657 
0.00284904 0.131659 0.0150261 
0.00268547 0.035256 0.0455248 
-0.0515259 0.0439564 0.0445165 
0.00880568 0.131337 0.0114907 
-0.0794099 0.141428 0.0463829 
-0.0524965 0.0790864 0.0437156 
0.0301266 0.0646197 0.0417292 
0.029871 0.0968887 0.0415927 
-0.0364972 0.0605644 0.0405385 
0.0316988 0.118246 0.0142694 
-0.0164825 0.0530314 0.0497852 
-0.05283 0.138085 0.0270749 
0.0429025 0.100097 0.0151567 
-0.0564947 0.102955 0.042036 
0.0144965 0.116791 0.0366152 
0.0254796 0.122858 0.0219249 
0.0175085 0.114012 0.0373101 
-0.0665222 0.156255 0.0214077 
-0.0196964 0.0384682 0.0290787 
-0.066143 0.143958 0.0413147 
-0.0284901 0.0688983 0.0393825 
-0.00759782 0.103673 0.0436498 
-0.0674926 0.0889102 0.043735 
-0.0116226 0.0389602 0.0338935 
-0.042488 0.1112 0.0368617 
-0.0263812 0.120789 0.0279195 
0.0351443 0.071382 0.0384881 
-0.042497 0.0874008 0.0424798 
0.0584743 0.0538121 0.0171841 
-0.0243177 0.0607418 0.04177 
-0.0908165 0.145736 0.0263481 
-0.0618436 0.129703 0.0404325 
-0.050269 0.11691 0.032477 
0.0317881 0.0564278 0.038783 
-0.0805024 0.128853 0.052889 
-0.0621699 0.128298 0.0417254 
-0.00350236 0.0774419 0.0585703 
-0.0579692 0.0408152 0.0462221 
-0.0804375 0.137229 0.0490949 
-0.0321779 0.0474216 0.0442941 
-0.0504989 0.101536 0.0421291 
0.0365187 0.0526805 0.0315096 
-0.0878261 0.11219 0.0337097 
-0.0881508 0.144556 0.0335371 
-0.0514204 0.0548853 0.0209522 
-0.0745038 0.141441 0.0470955 
-0.0579073 0.152669 0.031812 
0.027072 0.122359 0.0168201 
-0.092935 0.117416 0.0233037 
0.0293196 0.0632732 0.0423131 
0.0267785 0.0402768 0.0313512 
-0.0589919 0.15382 0.0299308 
0.0349362 0.113582 0.0211925 
0.0485157 0.0597129 0.0310438 
-0.052917 0.144693 0.0213981 
0.0463511 0.0764838 0.0150474 
-0.0425002 0.115266 0.0336474 
0.0389991 0.108356 0.0151637 
0.0374899 0.0469458 0.0313688 
-0.0304938 0.0960556 0.0449536 
-0.0123571 0.12972 0.0137799 
-0.0751884 0.153035 0.033144 
0.00348793 0.114165 0.0408953 
-0.0155018 0.080076 0.0569734 
-0.0574796 0.115365 0.0367006 
-0.0903629 0.11521 0.0252935 
-0.0495564 0.115418 0.0335944 
0.00750493 0.0561002 0.0528313 
0.00850697 0.0546686 0.0524774 
0.0194826 0.0892535 0.0485994 
-0.0124944 0.0870249 0.0570339 
0.0015045 0.0661578 0.0563313 
0.0223728 0.0658814 0.0463438 
0.00250208 0.0547919 0.0536548 
-0.0899879 0.140645 0.0281829 
-0.0312735 0.034639 0.0229335 
-0.00449379 0.0548276 0.0540049 
-0.0251898 0.0388783 0.0347661 
-0.0145052 0.0544906 0.0506759 
-0.059855 0.0594826 0.0200848 
-0.0614351 0.156032 0.020314 
0.0430843 0.0496743 0.0322331 
0.00550075 0.0772523 0.0562045 
-0.0164926 0.0544756 0.0504072 
-0.0909462 0.11476 0.0333322 
-0.0664798 0.0832826 0.043443 
-0.0315145 0.0788556 0.0411289 
-0.0174561 0.0544373 0.0497557 
-0.032272 0.0343596 0.0389523 
-0.0194474 0.054231 0.0477027 
-0.0344815 0.0575696 0.0386716 
0.0584157 0.0647883 0.022872 
0.0224909 0.111137 0.037371 
-0.020414 0.0541289 0.0465389 
0.0292021 0.0619142 0.0421314 
-0.0759966 0.0994807 0.0369297 
-0.00450509 0.0815118 0.0573962 
-0.021445 0.0539977 0.0453008 
-0.0224181 0.05387 0.0440179 
0.00655625 0.109588 0.0412446 
-0.0102645 0.038442 0.0220215 
-0.0104698 0.070299 0.0557764 
0.0398379 0.0874103 0.0331324 
-0.0241054 0.0348343 0.0490127 
-0.0524893 0.105673 0.0402508 
-0.0820555 0.138062 0.0474469 
0.038384 0.106978 0.0241932 
-0.0444963 0.119293 0.0294103 
0.0236683 0.0535376 0.0428398 
0.0178664 0.127935 0.017674 
-0.054019 0.0333099 0.015848 
-0.0484961 0.113915 0.0346796 
-0.0760712 0.152304 0.0343668 
0.0601313 0.0581272 0.0101639 
0.00534877 0.131711 0.0116581 
0.00850666 0.0896726 0.0548038 
-0.0773599 0.0940895 0.0370488 
0.00450914 0.0758818 0.0564153 
0.0174632 0.0948293 0.047857 
0.0240318 0.0591603 0.0451764 
0.042675 0.0751161 0.0282624 
0.0525507 0.0462401 0.0172033 
-0.0895247 0.139293 0.0351741 
-0.0435133 0.0846552 0.0431729 
-0.000391601 0.123621 0.0341495 
-0.0415011 0.0506114 0.0394281 
-0.0494838 0.129682 0.0301574 
0.0578529 0.0523616 0.0171842 
-0.0394917 0.0534182 0.0393765 
-0.000494259 0.0911454 0.0560111 
-0.05252 0.0490121 0.0379722 
-0.0295698 0.0377598 0.0258888 
-0.0445186 0.0533636 0.0386768 
-0.0475344 0.05323 0.0369443 
0.00638417 0.060281 0.0547831 
0.0138704 0.12508 0.0305218 
-0.0164574 0.11955 0.0353527 
-0.0797904 0.152563 0.0316147 
0.0233607 0.0713858 0.0478141 
-0.0370734 0.0393951 0.0451959 
-0.050498 0.0890212 0.0452499 
0.0145003 0.108488 0.0407955 
0.023086 0.119339 0.0317977 
0.0547648 0.068691 0.024634 
0.0243198 0.0564051 0.0438207 
-0.0223745 0.0566587 0.0441983 
-0.0819634 0.103331 0.0300688 
0.0379456 0.10977 0.0171703 
-0.0337588 0.121858 0.0267132 
-0.0655672 0.149686 0.0379738 
0.0175453 0.0645325 0.0499023 
-0.0154968 0.0659374 0.0537935 
-0.0344763 0.0561322 0.0383021 
0.0407626 0.105627 0.00616707 
-0.00725841 0.0408714 0.048906 
-0.0555057 0.0946 0.044463 
-0.0853384 0.107683 0.0213404 
0.0414995 0.0513848 0.032599 
0.012627 0.12184 0.0342326 
0.0355423 0.0512597 0.0315836 
0.0424943 0.0569701 0.0318321 
-0.0392376 0.124806 0.0231803 
-0.0455158 0.0889126 0.0438293 
-0.0454873 0.0789625 0.0423892 
0.0432798 0.100122 0.00916351 
0.0160657 0.128852 0.0141586 
-0.0932655 0.120203 0.038289 
0.037993 0.109314 0.0194453 
-0.0364949 0.0747255 0.0419725 
-0.073083 0.0981963 0.0397086 
-0.00349094 0.060529 0.0547186 
-0.0554658 0.14959 0.0286413 
0.00755707 0.10303 0.0452955 
-0.0315398 0.0589058 0.0377684 
-0.00761606 0.128811 0.0256727 
-0.0124605 0.0646213 0.0545516 
-0.0679264 0.131258 0.0474463 
-0.0110238 0.098585 0.0502027 
-0.023276 0.0768174 0.0529315 
-0.0794917 0.134473 0.0511764 
-0.0646755 0.142507 0.0398915 
0.0371269 0.09285 0.0362758 
0.0607736 0.0651167 0.0161629 
0.00467021 0.0347458 0.0211501 
0.0263587 0.0577877 0.0432503 
-0.00949217 0.110042 0.0428369 
-0.0225205 0.114038 0.037332 
-0.079504 0.128859 0.053141 
-0.0435006 0.115257 0.0335166 
0.0261579 0.0768253 0.0466356 
-0.0504737 0.113932 0.0347324 
-0.0870447 0.0977755 0.0254107 
0.0414472 0.0971985 0.0261597 
0.0397094 0.0887389 0.0329441 
-0.0435006 0.0534118 0.0391466 
0.0443161 0.095966 0.0141619 
0.0134925 0.114016 0.0379994 
-0.0592898 0.045994 0.0417021 
0.0403936 0.0629925 0.0301493 
0.00550371 0.0533623 0.0533002 
-0.036876 0.0434502 0.0434666 
0.0495021 0.0664943 0.0276338 
-0.00449363 0.0456798 0.0470573 
0.0165164 0.126586 0.0257514 
-0.0548201 0.128324 0.0365339 
-0.000498287 0.0535066 0.0547347 
-0.0088618 0.129865 0.0208462 
0.0199447 0.104671 0.0430468 
0.0580765 0.0566038 0.0222343 
-0.0135001 0.0800899 0.0570677 
-0.00127622 0.127442 0.029403 
-0.0758021 0.154133 0.0299324 
0.0207467 0.0387687 0.0412277 
-0.0877012 0.0963902 0.0247068 
0.00350742 0.103001 0.0436938 
0.0344933 0.0929192 0.0394802 
-0.0879353 0.140547 0.0390784 
0.0122548 0.126063 0.0299441 
-0.0104958 0.0939039 0.0555039 
0.0464355 0.0778581 0.0101835 
0.0414332 0.100023 0.0231582 
-0.0754196 0.111293 0.0461553 
0.0381693 0.109765 0.0141664 
0.0335837 0.114911 0.0235455 
-0.00451061 0.0534011 0.0538125 
-0.0334673 0.0532523 0.0375728 
-0.0545817 0.152467 0.0257328 
-0.0505103 0.0452467 0.0429196 
0.0224079 0.0809035 0.0500644 
0.0405445 0.0610221 0.0298369 
-0.0564952 0.047766 0.0395183 
0.0474899 0.0664975 0.0274045 
-0.0054947 0.0533903 0.0535249 
-0.0654224 0.156324 0.0217941 
-0.00650042 0.0533369 0.0530605 
-0.00849647 0.0532799 0.0524507 
-0.0575802 0.14965 0.0326026 
-0.0124761 0.0531764 0.0512005 
0.0255132 0.110081 0.0370706 
-0.0308933 0.12367 0.0217821 
0.0366581 0.0727136 0.0371657 
-0.0907644 0.142021 0.0271708 
0.0161339 0.0672434 0.0514025 
-0.00965298 0.0383614 0.0149817 
-0.0564752 0.0624455 0.0290854 
-0.0144826 0.0530653 0.0501401 
0.00170937 0.0361659 0.0210822 
-0.015502 0.0897786 0.0564851 
0.0455252 0.0918117 0.00617298 
0.00386952 0.131337 0.0182591 
0.0277791 0.0822205 0.0455159 
-0.0204809 0.0526524 0.0459576 
-0.0746876 0.0700138 0.0272066 
0.0373215 0.0444316 0.0300039 
-0.0543656 0.153368 0.0199938 
0.0167377 0.0461846 0.0432665 
0.0451851 0.0861731 0.0211635 
-0.025634 0.122393 0.025161 
-0.0842337 0.150005 0.032317 
-0.0214965 0.0525299 0.044709 
0.0453867 0.0413474 0.00824507 
-0.0855039 0.140637 0.0423198 
-0.028039 0.0849631 0.0475609 
-0.0415063 0.0534301 0.0394734 
-0.0224982 0.103036 0.0436276 
0.0184391 0.121423 0.0322194 
0.0396966 0.105593 0.0211678 
-0.0924762 0.124198 0.0322659 
0.000668194 0.039196 0.03081 
-0.0534928 0.0848236 0.0453456 
0.0159855 0.12897 0.0112743 
0.00949394 0.0426698 0.0450285 
-0.0434804 0.108484 0.0391565 
0.043481 0.0832455 0.0271768 
-0.0334582 0.0518969 0.0377238 
0.0102886 0.13098 0.0134608 
-0.0715197 0.0915892 0.0417662 
-0.057498 0.0762057 0.0428357 
-0.0364795 0.0519621 0.0386972 
0.0144699 0.0976455 0.0479677 
-0.0374857 0.0519831 0.0389557 
0.0477122 0.0511499 0.0301456 
-0.00250456 0.0562401 0.0542942 
-0.0598342 0.124083 0.0415696 
