ply
format ascii 1.0
comment Created by CloudCompare v2.11.3 (Anoia)
comment Created 4/24/25 11:26 AM
obj_info Generated by CloudCompare!
element vertex 1471
property float x
property float y
property float z
end_header
-0.0114219 0.0474805 -0.0372407 
-0.124095 0.086243 -0.0797996 
-0.0962002 0.00621526 -0.0698051 
-0.0344378 0.0265371 -0.0335035 
-0.0982276 0.00605965 -0.0701413 
-0.0992343 0.00597663 -0.0703482 
-0.0358869 0.0107291 -0.036304 
0.0122271 0.0298193 -0.0398048 
-0.101215 0.00575343 -0.0710991 
-0.0771002 0.0741124 -0.0647837 
-0.0758923 0.0875978 -0.0788969 
-0.0759352 0.0370156 -0.0548888 
-0.110333 0.109975 -0.0880624 
-0.0261386 0.0149906 -0.0385256 
-0.0500983 0.0645727 -0.0351138 
-0.0994413 0.110253 -0.0904964 
-0.0974395 0.0101324 -0.0714974 
-0.0494651 0.0994527 -0.0702217 
-0.0618953 0.0491753 -0.0352007 
0.00231449 0.0611111 -0.0538179 
-0.0251476 0.0133845 -0.0401629 
-0.0237473 0.0353658 -0.0322349 
-0.108112 0.0846787 -0.0834269 
-0.0288021 0.00853882 -0.0422904 
0.0158166 0.0293187 -0.0493149 
-0.0320011 0.0136993 -0.0362705 
-0.0300196 0.0136751 -0.0369385 
-0.0591813 0.0722994 -0.0504074 
-0.0339949 0.0136373 -0.036035 
-0.0349958 0.0135955 -0.036021 
-0.0147581 0.0290766 -0.0365535 
-0.0588142 0.0380379 -0.035124 
-0.0420301 0.0130337 -0.0373122 
-0.0849943 0.00894069 -0.0619172 
-0.0384802 0.0293199 -0.0317651 
-0.0247323 0.0353096 -0.0323082 
-0.0430465 0.0129093 -0.0377403 
-0.0440903 0.0127698 -0.0382409 
0.00268289 0.0569413 -0.0534796 
-0.0359876 0.0645193 -0.0326098 
-0.0973611 0.0908007 -0.08398 
-0.0264538 0.026826 -0.0341722 
-0.0878641 0.103598 -0.0955316 
-0.0804593 0.0777657 -0.0712121 
-0.0542413 0.0115101 -0.042685 
-0.0572852 0.0112035 -0.0435809 
-0.12796 0.0762947 -0.098237 
-0.064348 0.010537 -0.0454167 
-0.0653631 0.010434 -0.0457031 
-0.0409499 0.101045 -0.0703303 
-0.0673845 0.0102481 -0.0461903 
-0.1333 0.0878313 -0.0932378 
-0.109164 0.0861699 -0.0823807 
-0.0497132 0.0326557 -0.0331849 
-0.0622024 0.0707445 -0.0514696 
-0.0703817 0.00999191 -0.0468576 
-0.0754271 0.00955578 -0.0479429 
-0.0833115 0.0891709 -0.0861437 
0.00864778 0.0170841 -0.05108 
-0.117834 0.118378 -0.110743 
-0.0509246 0.0395383 -0.0320107 
-0.0217712 0.0887601 -0.0478524 
-0.0238293 0.0778647 -0.0398147 
-0.0490451 0.0423591 -0.0317443 
-0.0920577 0.00526845 -0.068321 
-0.0266834 0.0338267 -0.0326571 
-0.0816399 0.0167506 -0.0962777 
-0.0930417 0.00518616 -0.068435 
-0.0433245 0.0509487 -0.03012 
-0.127551 0.0953689 -0.108507 
-0.114015 0.0862991 -0.0789842 
-0.0892643 0.0236172 -0.0737031 
-0.0940784 0.00508202 -0.0687972 
-0.0501696 0.0450056 -0.0316993 
-0.0950804 0.00497603 -0.0691517 
-0.098124 0.00474202 -0.0698693 
-0.102134 0.00418211 -0.0718927 
-0.100425 0.110202 -0.0904951 
-0.117401 0.0694919 -0.11201 
-0.0985726 0.0949417 -0.0849669 
-0.101235 0.00117854 -0.0769905 
-0.0442712 0.0184923 -0.0373456 
-0.121152 0.0752487 -0.0896088 
-0.0131608 0.0421023 -0.0363475 
-0.0437989 0.0846899 -0.0474507 
-0.0873168 0.10152 -0.0939174 
-0.0190008 0.093791 -0.0595622 
-0.0744689 0.0110472 -0.0477481 
-0.0845095 0.0116376 -0.0632788 
0.0047613 0.0471084 -0.0554684 
0.000421265 0.0339608 -0.0311145 
-0.0341552 0.0946731 -0.0528535 
-0.0380038 0.064406 -0.0327594 
-0.0770185 0.0806379 -0.0713786 
-0.0339448 0.0122457 -0.0360931 
-0.0359409 0.0121354 -0.0361138 
-0.0379338 0.0120597 -0.0361093 
-0.0399514 0.0118709 -0.0365894 
-0.0440024 0.0113929 -0.0382066 
-0.0450168 0.0112664 -0.0386454 
-0.0470582 0.0109964 -0.039614 
-0.0235812 0.00605136 -0.0516565 
-0.00235668 0.0283361 -0.0312871 
-0.0480754 0.0108726 -0.0400434 
-0.0491194 0.0107301 -0.0405447 
-0.052182 0.0103395 -0.0419218 
-0.0489989 0.0671997 -0.0371671 
-0.0542096 0.01011 -0.042636 
-0.0552092 0.0100055 -0.0429758 
-0.0562216 0.00990226 -0.0432741 
-0.101762 0.000557598 -0.0892329 
-0.133571 0.0900682 -0.0995693 
-0.0582358 0.00971117 -0.0437874 
-0.0696568 0.0582794 -0.0408625 
-0.0993176 0.0643879 -0.0754067 
8.97814e-05 0.0449776 -0.0442257 
-0.113671 0.0411686 -0.0997507 
-0.0663024 0.00893692 -0.0459509 
-0.107362 0.110056 -0.0885799 
-0.0673097 0.00885826 -0.0461417 
-0.0683268 0.00876887 -0.0463023 
-0.100136 0.000861719 -0.0828564 
-0.0762647 0.0550271 -0.0450474 
-0.0733323 0.00835578 -0.0473709 
-0.0753705 0.00816426 -0.0478365 
-0.0763653 0.00809375 -0.0480881 
-0.0352178 0.0485486 -0.0305595 
-0.0764558 0.076859 -0.0661657 
-0.0304193 0.0251102 -0.0349306 
-0.117951 0.104227 -0.0843069 
-0.101134 0.0332073 -0.0865483 
-0.0986415 0.0963436 -0.0854003 
-0.0147535 0.0740105 -0.0411876 
-0.0900301 0.00401022 -0.0677829 
-0.0910006 0.00399319 -0.0678805 
-0.0930187 0.00379909 -0.068368 
0.00213956 0.0392448 -0.03258 
-0.00824153 0.0734899 -0.046564 
-0.0950464 0.00358493 -0.0689652 
-0.059776 0.0379968 -0.0354777 
-0.130539 0.0927571 -0.0853352 
-0.098051 0.00327396 -0.0701164 
-0.099015 0.00320012 -0.0705433 
-0.100139 0.00314981 -0.0710912 
-0.0918332 0.0675764 -0.0725973 
-0.0809715 0.0508023 -0.0579297 
-0.0538891 0.0982495 -0.0758434 
-0.0794808 0.00912223 -0.0493664 
-0.111344 0.0918271 -0.0815904 
-0.0201572 0.0662831 -0.0352663 
-0.132425 0.0946107 -0.0940124 
-0.0562779 0.0112861 -0.043375 
-0.0837455 0.00672206 -0.054802 
-0.0451667 0.0467566 -0.0304689 
-0.0255027 0.0726073 -0.0369975 
-0.0914458 0.0796735 -0.0803107 
-0.0112248 0.0761954 -0.0449522 
-0.0751135 0.0649714 -0.0532076 
-0.0954442 0.0922313 -0.0848706 
0.0152694 0.0401212 -0.0519573 
-0.123402 0.111385 -0.0932968 
-0.093783 0.0301451 -0.084947 
-0.117835 0.0833692 -0.078378 
0.00384842 0.0637587 -0.0576322 
-0.0157876 0.0339853 -0.035367 
-0.0378889 0.0106218 -0.0363339 
-0.0964124 0.0294309 -0.0893989 
-0.0593899 0.0669035 -0.0393777 
-0.0389037 0.0105321 -0.0364791 
-0.0398801 0.0104855 -0.0366712 
-0.0409103 0.010353 -0.0370467 
-0.0429436 0.0101016 -0.0379092 
-0.0808418 0.00244927 -0.0691793 
-0.0461656 0.0098401 -0.0392611 
0.00264255 0.0136548 -0.0488607 
-0.0398499 0.0912606 -0.049627 
-0.0480317 0.00947617 -0.0400435 
-0.0490867 0.00933237 -0.0405177 
-0.101981 0.101693 -0.088133 
-0.0612427 0.00806054 -0.0444819 
-0.0279452 0.0803788 -0.0400502 
-0.0631857 0.00785083 -0.0451286 
-0.0652141 0.00765911 -0.0456269 
-0.0874038 0.0238722 -0.0951945 
-0.0662503 0.00754507 -0.0458436 
-0.0566864 0.00912428 -0.0544251 
-0.0820362 0.0541162 -0.0659997 
-0.0766061 0.0175846 -0.0535244 
-0.0507992 0.00714624 -0.0740902 
-0.0961895 0.104609 -0.0907918 
-0.0682325 0.00739402 -0.0463099 
-0.0712432 0.00712511 -0.0471183 
-0.074292 0.00686856 -0.0474132 
-0.0941591 0.0387108 -0.0756626 
-0.0738778 0.0367221 -0.0467727 
-0.0963465 0.00891695 -0.0705791 
-0.0783382 0.0064766 -0.0486235 
-0.100166 0.0281179 -0.101892 
0.0164697 0.0350968 -0.0479628 
-0.0252117 0.0877891 -0.0457288 
-0.0949279 0.00230217 -0.0702987 
-0.0215201 0.0124419 -0.0421197 
-0.000593973 0.0160612 -0.0404759 
-0.0973521 0.00885918 -0.0706474 
-0.0980836 0.0835165 -0.0849871 
-0.0175822 0.0283118 -0.0361199 
-0.108231 0.0890056 -0.0826058 
-0.100157 0.0864443 -0.0835863 
-0.000286492 0.0720338 -0.055711 
-0.132199 0.0845426 -0.104002 
-0.023133 0.0448434 -0.0325023 
-0.00240483 0.0297481 -0.031029 
-0.0282522 0.0193745 -0.0367089 
-0.0910693 0.106535 -0.0952238 
-0.000575153 0.0339243 -0.0310297 
-0.0207122 0.0753067 -0.0394413 
-0.040911 0.00888439 -0.0371451 
-0.107101 0.121222 -0.101984 
-0.107679 0.034521 -0.105253 
-0.10495 0.0571326 -0.0769185 
-0.0456899 0.0328832 -0.0329854 
0.00104752 0.0569921 -0.0509747 
-0.083652 0.0734543 -0.0712967 
-0.0601591 0.00671156 -0.0440109 
-0.100934 0.0803764 -0.0859655 
-0.0361891 0.00411917 -0.0702908 
-0.101953 0.0293842 -0.102858 
-0.0820656 0.034208 -0.0674852 
-0.0222451 0.0475754 -0.0325582 
-0.107676 0.0468338 -0.0808443 
-0.102446 0.111608 -0.0898621 
-0.0422143 0.0482796 -0.0301759 
-0.04198 0.0931678 -0.0518407 
-0.0191756 0.0448488 -0.0338496 
-0.0271371 0.0905125 -0.0482213 
-0.128778 0.0954766 -0.105734 
-0.0349688 0.00397538 -0.0662051 
-0.0270395 0.081673 -0.0410196 
-0.0165507 0.0268497 -0.0369271 
-0.0390552 0.00558728 -0.0466656 
-0.108989 0.0801006 -0.0854812 
-0.00663129 0.0499863 -0.0403337 
-0.126716 0.0830304 -0.109969 
-0.0808936 0.0803398 -0.0746107 
-0.100827 0.0475035 -0.0748876 
-0.0871853 0.0799329 -0.0776933 
-0.0626317 0.0654337 -0.0396847 
-0.103372 0.11018 -0.089231 
-0.0980348 0.0820369 -0.0854314 
-0.0897531 0.0797958 -0.0792483 
-0.0949206 0.0793703 -0.082273 
-0.0966408 0.0792805 -0.083304 
-0.101145 0.0864131 -0.0833994 
-0.0767551 0.00225433 -0.0747065 
-0.0243408 0.0700986 -0.0357187 
-0.0740535 0.00666425 -0.047378 
-0.0758499 0.0389332 -0.0489058 
-0.0982797 0.0791724 -0.0844284 
-0.0997887 0.0560727 -0.0737177 
-0.100015 0.0790269 -0.0854183 
-0.100925 0.0789739 -0.0858437 
-0.0645543 0.00562285 -0.0455146 
-0.101798 0.078919 -0.0863182 
-0.104798 0.078681 -0.0875162 
-0.0247548 0.0870331 -0.0451471 
-0.0784605 0.00926407 -0.0488037 
-0.0573586 0.0707589 -0.0459943 
-0.11284 0.0478581 -0.0864967 
-0.0206714 0.0116868 -0.0428332 
-0.011747 0.0788858 -0.0465138 
-0.0803998 0.0575894 -0.0596539 
-0.110994 0.10286 -0.08672 
-0.0813136 0.086909 -0.0803361 
-0.0333569 0.0991422 -0.0606146 
-0.0961596 0.0315648 -0.0842109 
-0.0892421 0.0810913 -0.0802191 
-0.13118 0.0786244 -0.0967218 
-0.0641139 0.0931901 -0.0820435 
-0.026357 0.0997583 -0.0712394 
-0.0111991 0.0874186 -0.0582006 
-0.0268471 0.062289 -0.0320372 
-0.0960914 0.0835598 -0.0853332 
-0.0900279 0.0810344 -0.0808467 
0.00321307 0.0461009 -0.0515284 
-0.121312 0.0774458 -0.107899 
-0.115822 0.0473696 -0.0929618 
-0.0347236 0.082362 -0.0428302 
-0.0366809 0.0822642 -0.0434838 
-0.0387748 0.0821963 -0.0439068 
-0.0471416 0.0817731 -0.0475182 
-0.0736248 0.0279981 -0.0608727 
-0.05238 0.081616 -0.0485399 
-0.0533585 0.0815749 -0.0488511 
-0.0117095 0.0802877 -0.0478352 
-0.0559732 0.0814155 -0.0502917 
-0.104611 0.069481 -0.0807527 
-0.0474652 0.0273464 -0.0329945 
0.0139792 0.0235083 -0.0491301 
-0.0568096 0.0813487 -0.0508338 
-0.0576617 0.0812927 -0.0513469 
-0.060128 0.0810905 -0.0530463 
-0.0795116 0.0699017 -0.0642422 
-0.0609322 0.0810421 -0.0536491 
-0.0508085 0.0597307 -0.0327191 
-0.0634891 0.0808762 -0.0552084 
-0.0805207 0.0724845 -0.0667068 
-0.0642164 0.0807827 -0.0558528 
-0.109938 0.0465615 -0.0829067 
-0.0686053 0.0803388 -0.0601947 
-0.0807029 0.00351398 -0.0553279 
-0.0534913 0.0131058 -0.0428142 
-0.0693189 0.0802632 -0.0609352 
-0.11901 0.0575396 -0.101271 
-0.0700482 0.0801957 -0.0616606 
-0.025374 0.0515983 -0.031632 
-0.0823089 0.0221982 -0.097601 
-0.0748072 0.0796394 -0.067265 
-0.0760934 0.0794674 -0.0689584 
-0.0807067 0.0790479 -0.072864 
-0.0984406 0.110275 -0.0907231 
-0.114222 0.0630749 -0.0874025 
-0.0724641 0.0112203 -0.0473082 
0.0043256 0.0567761 -0.0571485 
-0.0674767 0.00583574 -0.0771243 
-0.0857814 0.0786955 -0.0760045 
-0.0937496 0.037414 -0.0761977 
-0.0867012 0.078658 -0.0764122 
-0.0233978 0.0239422 -0.0357532 
-0.0895615 0.0784948 -0.0775069 
-0.0904057 0.078432 -0.0780415 
-0.0862842 0.0826272 -0.0794529 
-0.0919932 0.0172339 -0.0827076 
-0.0912686 0.0783939 -0.07855 
-0.0921284 0.0783535 -0.0790661 
-0.0145169 0.00546931 -0.0596442 
-0.12757 0.0843465 -0.0870338 
-0.0978585 0.0778934 -0.0830788 
-0.0245024 0.0726614 -0.0371145 
-0.11075 0.0986503 -0.0858732 
-0.100418 0.0776621 -0.0846208 
-0.101264 0.0776006 -0.0851495 
-0.0196514 0.0740207 -0.0391653 
-0.0509651 0.0734181 -0.043983 
-0.102126 0.0775556 -0.085657 
0.00028511 0.063931 -0.0516244 
-0.103871 0.07743 -0.0866406 
-0.104857 0.0773048 -0.0870679 
-0.112113 0.086271 -0.0801457 
-0.0264937 0.0282615 -0.0336747 
-0.0905853 0.0380317 -0.0712968 
-0.0908482 0.0809343 -0.0814074 
-0.0955256 0.11027 -0.0921701 
0.00967762 0.0453347 -0.0431061 
-0.0917835 0.0809095 -0.0818091 
-0.0474045 0.0827928 -0.0476594 
-0.0294332 0.052779 -0.0314976 
-0.0817259 0.0934319 -0.0932872 
-0.0475663 0.0659227 -0.0355867 
-0.111488 0.0674187 -0.0864776 
-0.0584909 0.0852904 -0.0542649 
0.0157612 0.033925 -0.0447911 
-0.0990486 0.0377147 -0.0797856 
-0.0399697 0.0414802 -0.0311819 
-0.0186901 0.0326763 -0.0340448 
-0.095563 0.114308 -0.0934359 
-0.0724846 0.0759486 -0.0610451 
-0.0427753 0.058711 -0.0331538 
-0.0012538 0.0239656 -0.0333308 
-0.0765452 0.0204726 -0.0679447 
-0.128687 0.0856164 -0.0879407 
-0.0341534 0.0810415 -0.0417123 
-0.087327 0.108053 -0.0988531 
-0.0765679 0.0393676 -0.0600717 
-0.027258 0.0488341 -0.0314003 
-0.0390619 0.0808386 -0.0432831 
-0.0401035 0.0807951 -0.0435109 
-0.0427605 0.0806335 -0.0448788 
-0.0461094 0.0804078 -0.0470798 
-0.0120706 0.0162641 -0.0370642 
-0.0604029 0.0890559 -0.0591858 
-0.123652 0.0983979 -0.0824194 
-0.0102643 0.0433736 -0.0378523 
-0.0504451 0.080313 -0.0477028 
-0.0719167 0.0863142 -0.07266 
-0.0524694 0.0802407 -0.0482319 
-0.103105 0.00948977 -0.0745108 
-0.0551843 0.080075 -0.0495364 
-0.0560346 0.0800162 -0.050046 
-0.0587544 0.0798381 -0.0513338 
-0.0865464 0.0183708 -0.0911999 
-0.0913433 0.114159 -0.096767 
-0.0595635 0.0797913 -0.051919 
-0.0604182 0.0797351 -0.0524359 
-0.0629625 0.0795642 -0.0540047 
-0.111825 0.100027 -0.0858428 
-0.038415 0.00558016 -0.0433831 
-0.10288 0.100301 -0.0871294 
-0.0805033 0.00895739 -0.0500516 
-0.0430374 0.0426698 -0.0313681 
-0.0644748 0.0794036 -0.0553206 
-0.104055 0.0817062 -0.0860468 
-0.0652163 0.0793382 -0.0560367 
-0.113681 0.0986718 -0.0843381 
-0.0751353 0.0052331 -0.0716254 
0.0102602 0.0354908 -0.036442 
-0.0667809 0.0792016 -0.0572907 
-0.129178 0.0776097 -0.0933615 
-0.0992598 0.00923091 -0.0917982 
-0.067519 0.0791393 -0.058005 
-0.0682065 0.0790475 -0.0587705 
-0.108165 0.0861647 -0.0829302 
-0.0670867 0.0228933 -0.0448134 
-0.0718747 0.0786769 -0.0623428 
-0.0675473 0.0180694 -0.0492089 
-0.0726196 0.0786246 -0.0630524 
-0.0522641 0.0475805 -0.0320065 
-0.0733418 0.0785519 -0.0637897 
-0.0961045 0.00487514 -0.0694332 
-0.0740331 0.0784582 -0.0645487 
-0.0297875 0.0776479 -0.0391336 
-0.0262576 0.0194628 -0.0368067 
-0.0185368 0.052982 -0.0340048 
-0.0753656 0.0783143 -0.0662244 
-0.0363457 0.0235381 -0.0343703 
-0.0910551 0.0271147 -0.0794893 
-0.0819755 0.0776383 -0.0725653 
-0.0827318 0.077542 -0.0732227 
-0.0871219 0.0773222 -0.0755619 
-0.0585099 0.0129523 -0.0442628 
-0.0891983 0.0772202 -0.0760394 
-0.0900762 0.077211 -0.0765172 
-0.0909726 0.0771278 -0.0769789 
-0.118257 0.0538964 -0.0960046 
0.0029649 0.0458064 -0.0404378 
-0.0959065 0.0767115 -0.0803935 
-0.101308 0.107275 -0.0905237 
-0.0983937 0.076544 -0.082063 
0.0128735 0.0220587 -0.0485974 
-0.0992554 0.0764235 -0.082556 
-0.100123 0.0763906 -0.083057 
-0.0943801 0.0148128 -0.0758539 
-0.105126 0.0760145 -0.0863498 
-0.095552 0.0395788 -0.0757309 
-0.106406 0.114458 -0.0888794 
-0.10937 0.0757124 -0.088975 
-0.11117 0.0755299 -0.0898703 
-0.00964373 0.0514549 -0.0385378 
0.0144796 0.0407842 -0.0445918 
-0.0621383 0.0795952 -0.0533845 
-0.00722853 0.0788307 -0.0519562 
-0.0306609 0.0337173 -0.0320143 
-0.0860427 0.0512175 -0.066834 
-0.121639 0.0985036 -0.0822646 
-0.098713 0.0390606 -0.0785415 
-0.128813 0.098281 -0.104663 
-0.0434151 0.100531 -0.0756763 
-0.100241 0.105904 -0.0902468 
-0.0952563 0.0807056 -0.083769 
-0.06676 0.0916865 -0.0809685 
-0.00143339 0.058426 -0.0478446 
-0.0997142 0.115956 -0.0910973 
-0.0930078 0.0477901 -0.0723078 
0.00347758 0.0541466 -0.0540868 
-0.115959 0.104278 -0.0846562 
-0.0365423 0.0796315 -0.0414955 
-0.0608374 0.0756184 -0.0512852 
-0.0431073 0.0792576 -0.0441699 
-0.0102956 0.0694139 -0.0418599 
-0.043872 0.0791775 -0.0448167 
-0.0472978 0.0789861 -0.0469091 
-0.0462687 0.0790376 -0.046652 
-0.0533421 0.0787891 -0.0485406 
-0.0571104 0.0785909 -0.0500619 
-0.0580285 0.0785417 -0.0504643 
-0.119296 0.0649048 -0.111062 
-0.0389677 0.0415518 -0.0311777 
-0.0803394 0.0555932 -0.0502474 
-0.0520604 0.0240338 -0.0349345 
-0.0131296 0.0158191 -0.0376155 
-0.039785 0.00590156 -0.0686041 
0.0152799 0.0279281 -0.0484504 
-0.0523639 0.00687518 -0.0779942 
-0.0615525 0.0783278 -0.0523422 
-0.0645904 0.0780372 -0.0549949 
-0.103135 0.0863517 -0.0832201 
-0.0479234 0.0397192 -0.0316267 
-0.0662085 0.0779034 -0.0561695 
-0.0220182 0.0953245 -0.0591059 
-0.0765477 0.0431936 -0.0480536 
-0.0669848 0.0778325 -0.0568053 
-0.0690797 0.0776153 -0.0591552 
-0.115672 0.113713 -0.0899522 
-0.0722047 0.077311 -0.0616483 
-0.0657492 0.091782 -0.0774179 
-0.00864632 0.0528001 -0.0391614 
-0.0758383 0.076967 -0.0652992 
-0.0816162 0.0763549 -0.0711125 
-0.0816884 0.00318957 -0.0609227 
-0.0838329 0.0761365 -0.073202 
-0.0846091 0.0760692 -0.0738237 
-0.0712446 0.0881367 -0.0752805 
-0.0633708 0.0929297 -0.0744241 
-0.0283692 0.0515005 -0.0313085 
-0.0720169 0.0262359 -0.0487593 
-0.0670611 0.0703793 -0.0554397 
-0.0914553 0.0757821 -0.076052 
-0.0855244 0.0693255 -0.0697028 
-0.0939889 0.0755799 -0.0776566 
-0.12503 0.0756065 -0.0942423 
-0.0947767 0.0755115 -0.078291 
-0.0998509 0.0751579 -0.0814572 
-0.123148 0.0753688 -0.0919046 
-0.100635 0.0750918 -0.0820907 
-0.0395281 0.0733552 -0.0368872 
-0.0667755 0.00221063 -0.0820187 
-0.0906144 0.0264494 -0.0867245 
-0.103866 0.0748051 -0.0844444 
0.00407263 0.0513243 -0.0548273 
-0.109461 0.0743347 -0.0886758 
-0.121801 0.105749 -0.0856891 
-0.0450666 0.00529412 -0.0423159 
-0.110902 0.0741733 -0.0901683 
-0.0614482 0.0902263 -0.0614096 
-0.113378 0.0739419 -0.0918219 
-0.0166919 0.0311905 -0.0356548 
-0.0726136 0.0260802 -0.0506614 
-0.0344794 0.0279834 -0.0330421 
-0.0300475 0.0965244 -0.0563507 
-0.095272 0.0477598 -0.0724456 
-0.0957492 0.115953 -0.0933235 
-0.0741969 0.0327648 -0.0549364 
-0.0245814 0.0739511 -0.0377652 
-0.0673148 0.0447417 -0.037449 
-0.0190371 0.0946548 -0.0618058 
-0.0989646 0.0805133 -0.0853835 
-0.0574407 0.0669416 -0.0387633 
-0.0865118 0.0113695 -0.0933095 
-0.0101712 0.0406314 -0.0380678 
-0.0354141 0.0265078 -0.0331843 
-0.0369522 0.0782747 -0.0406916 
-0.0163908 0.084737 -0.0474157 
-0.047525 0.0287158 -0.0330751 
-0.0380599 0.0782147 -0.0408324 
-0.039166 0.0781553 -0.0409633 
-0.0707604 0.0282374 -0.0470944 
0.0098005 0.0254284 -0.0388449 
-0.112028 0.104288 -0.0863681 
-0.0446242 0.0778594 -0.043457 
-0.0453856 0.0777713 -0.044106 
-0.125113 0.104938 -0.112001 
-0.124989 0.0841138 -0.117173 
-0.0702028 0.0648994 -0.044513 
-0.0543134 0.0773339 -0.0487417 
-0.0617064 0.0755605 -0.0517834 
-0.0129317 0.00547342 -0.0633075 
-0.0562913 0.0772573 -0.0493349 
-0.131177 0.0805553 -0.103242 
-0.0246772 0.0339533 -0.0323577 
-0.0749446 0.0481221 -0.0444961 
-0.115531 0.0650915 -0.0913736 
-0.0648398 0.0929233 -0.082996 
-0.0293689 0.0514562 -0.0313054 
-0.0679312 0.0763942 -0.057028 
-0.06856 0.0763129 -0.0579339 
-0.0532109 0.0355363 -0.0324398 
-0.0509942 0.0982453 -0.0655518 
-0.000169663 0.0393898 -0.0328059 
-0.069973 0.076123 -0.0593978 
-0.00435511 0.0282492 -0.0313868 
-0.0717118 0.0760244 -0.0604091 
-0.0740329 0.0758384 -0.0623672 
-0.0660338 0.0912446 -0.0733157 
-0.126603 0.0855859 -0.113495 
-0.0747687 0.0757382 -0.0630408 
0.00925409 0.0205885 -0.0437609 
-0.0754588 0.0756436 -0.0637991 
-0.09958 0.043081 -0.0763827 
-0.0761415 0.0755803 -0.0646213 
-0.0781715 0.0753444 -0.0670362 
-0.0903978 0.117203 -0.098614 
-0.0789875 0.0752567 -0.0675926 
-0.0833278 0.0748273 -0.0719853 
-0.0840918 0.0747506 -0.0726257 
0.00114742 0.0391825 -0.0325677 
-0.0432999 0.0200483 -0.03649 
-0.10345 0.0761491 -0.0852685 
-0.0866403 0.0746044 -0.0741361 
-0.0876767 0.0745919 -0.0743067 
-0.116497 0.112717 -0.0893206 
-0.0900239 0.0745119 -0.0744031 
-0.0943223 0.0742066 -0.0769659 
-0.098684 0.0110716 -0.0723474 
-0.0956564 0.0740591 -0.0786118 
0.0110022 0.0298186 -0.0382043 
-0.0974094 0.0739556 -0.0795477 
-0.103329 0.0321496 -0.0926673 
-0.100208 0.0738077 -0.0807269 
-0.105105 0.0733729 -0.0841812 
-0.054838 0.0425085 -0.0325597 
-0.0733982 0.0869124 -0.0756993 
-0.108237 0.073111 -0.086704 
-0.105155 0.00819723 -0.0829822 
-0.0312002 0.0992752 -0.0622114 
-0.0918582 0.0591933 -0.0716128 
-0.0493564 0.0504836 -0.0315027 
-0.0552856 0.0976186 -0.0709668 
-0.111695 0.0727027 -0.0906044 
-0.117668 0.046669 -0.101719 
-0.112556 0.0725968 -0.0913932 
-0.00564479 0.0499265 -0.0410715 
-0.101021 0.0819348 -0.0853143 
-0.00273282 0.0639723 -0.0476222 
-0.00613875 0.0192959 -0.0351064 
-0.0700747 0.0660822 -0.0467199 
-0.0819579 0.074991 -0.0704065 
-0.0998767 0.0546955 -0.0734186 
-0.0266188 0.0569212 -0.031869 
-0.0243276 0.0905591 -0.0489611 
-0.0248203 0.0911907 -0.0495975 
-0.0222328 0.0894911 -0.0484484 
-0.0793985 0.0804782 -0.0732432 
-0.0257717 0.0925948 -0.0508454 
-0.0288763 0.0958646 -0.0548533 
-0.00076413 0.037801 -0.0320843 
-0.115195 0.042785 -0.100849 
-0.000313446 0.0707179 -0.0545185 
-0.0587989 0.0839063 -0.0535908 
-0.000515705 0.0325846 -0.0309385 
-0.0466258 0.00925934 -0.0542526 
-0.104358 0.110182 -0.0886936 
-0.102698 0.078864 -0.0867724 
-0.125483 0.0951713 -0.114275 
-0.0627039 0.0936392 -0.0758659 
-0.0935879 0.0385238 -0.0748726 
-0.00942894 0.074859 -0.0461437 
-0.0338423 0.0770682 -0.039719 
-0.0798864 0.0882693 -0.0808906 
-0.0392244 0.00684446 -0.0588419 
-0.0185077 0.0900935 -0.0523588 
-0.0719651 0.0875215 -0.0745707 
0.00900607 0.029814 -0.0359052 
-0.0735606 0.0317784 -0.0498756 
-0.0394104 0.0794821 -0.0425662 
-0.0462072 0.099966 -0.0682742 
-0.0387512 0.0769222 -0.0395706 
-0.0417486 0.0767846 -0.0404187 
-0.0350317 0.0429687 -0.0319254 
-0.051775 0.028344 -0.0339731 
-0.0976271 0.000502534 -0.0897585 
0.0124221 0.0422805 -0.0411862 
-0.0054841 0.0681139 -0.0458947 
-0.0714771 0.0526852 -0.0411052 
-0.0762722 0.0807473 -0.0707113 
-0.0444766 0.0766234 -0.0416805 
-0.0453679 0.0765416 -0.0421165 
-0.0777978 0.076678 -0.0677718 
-0.0462289 0.076514 -0.0426169 
-0.0391062 0.045661 -0.0305588 
-0.0470366 0.0764204 -0.0431567 
-0.0770718 0.0299555 -0.0674732 
-0.0504032 0.0760877 -0.0472655 
-0.0950416 0.119578 -0.0955754 
-0.00976731 0.0625124 -0.040151 
-0.0671982 0.0805082 -0.0586933 
-0.0145175 0.0701093 -0.0396143 
-0.0543319 0.0759287 -0.0485506 
-0.0141918 0.0434978 -0.0356907 
-0.0592004 0.0757372 -0.0501667 
-0.0599877 0.0756714 -0.0507688 
-0.099121 0.0849993 -0.0841661 
-0.0580502 0.0710618 -0.0492802 
-0.0655624 0.0752033 -0.0550305 
-0.0243893 0.023947 -0.0354929 
-0.0663268 0.075131 -0.0556831 
-0.0671977 0.0750696 -0.0561478 
-0.0245886 0.0940372 -0.053684 
-0.0679991 0.0750049 -0.0567573 
-0.0967409 0.0977657 -0.0864506 
-0.0550655 0.094529 -0.0617843 
-0.109652 0.0703279 -0.0860162 
-0.0719074 0.0746773 -0.0599516 
-0.0763991 0.0152631 -0.04982 
-0.126856 0.0759242 -0.0966084 
-0.0493503 0.0775242 -0.0472272 
-0.0735578 0.0745283 -0.0610634 
-0.0411061 0.0456048 -0.0302488 
-0.102996 0.0558062 -0.0761192 
-0.0270206 0.041921 -0.0327394 
-0.0758447 0.0743178 -0.0630573 
-0.0484435 0.0976599 -0.0623023 
-0.0778112 0.0740266 -0.0655285 
-0.0785551 0.0739731 -0.0662449 
-0.0793415 0.0739101 -0.0668724 
-0.0809373 0.073799 -0.068114 
-0.0645077 0.0558849 -0.0374939 
-0.0317869 0.0944591 -0.0520251 
-0.0828885 0.0735373 -0.0706502 
-0.0799196 0.0791098 -0.0722382 
-0.0844172 0.0733753 -0.0719409 
-0.0729877 0.0799077 -0.0645056 
-0.0516425 0.00690403 -0.0772675 
-0.111661 0.0972772 -0.0846475 
-0.0169946 0.00659256 -0.0664006 
-0.117199 0.0634689 -0.0949673 
-0.0938099 0.0729021 -0.0757408 
0.00158279 0.0298355 -0.0317473 
-0.0951797 0.0727424 -0.0773209 
-0.0924258 0.00185718 -0.0733164 
-0.0977122 0.0725447 -0.0789346 
-0.0995552 0.0724686 -0.0797288 
-0.081146 0.0962019 -0.0948572 
-0.103159 0.0722743 -0.0815089 
-0.0701644 0.0747725 -0.058952 
-0.12549 0.110025 -0.1122 
-0.104707 0.0721217 -0.0827986 
-0.0567127 0.050671 -0.0342323 
-0.115133 0.0437955 -0.0969802 
-0.10548 0.0720476 -0.0834395 
-0.106315 0.0719739 -0.0839815 
-0.125453 0.0987327 -0.0828165 
-0.0434402 0.0260327 -0.0338782 
-0.107101 0.071912 -0.0846069 
-0.0437874 0.0779316 -0.0429263 
-0.103354 0.0668676 -0.0786865 
-0.107861 0.071827 -0.0852568 
-0.00903199 0.0819981 -0.0532756 
-0.0290247 0.0816031 -0.0408147 
-0.102603 0.0762097 -0.084738 
-0.108585 0.0717572 -0.0859915 
-0.0562634 0.0354611 -0.0332552 
-0.0541815 0.0075263 -0.0677945 
-0.10998 0.0716094 -0.0875534 
-0.0941665 0.0350623 -0.0788137 
-0.11187 0.0713127 -0.0901385 
-0.113343 0.0711676 -0.091581 
-0.122422 0.0891762 -0.0790009 
-0.0744188 0.06399 -0.0481712 
-0.0743711 0.00543645 -0.0476867 
-0.0245873 0.0960768 -0.0580621 
-0.0867941 0.00573541 -0.0673197 
-0.118242 0.0795059 -0.0810136 
-0.0774346 0.0093918 -0.0483806 
-0.0139415 0.0788988 -0.0443182 
-0.130579 0.0818179 -0.105266 
-0.0855256 0.00853722 -0.0668442 
-0.05158 0.0909779 -0.0546586 
-0.0606992 0.00740778 -0.0667994 
-0.0387364 0.0903325 -0.0486531 
-0.0825272 0.0010898 -0.0819455 
-0.0961441 0.0562684 -0.0720114 
-0.0442541 0.0753829 -0.040018 
-0.119072 0.10858 -0.0866226 
-0.0451576 0.075319 -0.0404452 
-0.118707 0.0577027 -0.0992917 
-0.0468584 0.0752285 -0.0414661 
-0.0476258 0.0751489 -0.0421032 
-0.0871176 0.0637641 -0.0683836 
-0.0761536 0.0942642 -0.0929301 
-0.0834985 0.0828173 -0.0782404 
-0.0525168 0.0746277 -0.0474943 
-0.0515205 0.00711781 -0.0748187 
-0.0544736 0.0745426 -0.0481553 
-0.0565458 0.0744841 -0.0486289 
-0.102356 0.00589307 -0.090453 
-0.0607687 0.0742107 -0.0512362 
-0.0110876 0.036066 -0.0374451 
-0.0639694 0.0739356 -0.0536451 
-0.00738696 0.0598284 -0.041005 
-0.0672836 0.0736822 -0.0558655 
-0.0694371 0.0734701 -0.0581248 
-0.0258138 0.0778131 -0.0393995 
-0.070466 0.0734172 -0.0583288 
-0.00682898 0.00691244 -0.0587666 
-0.0259637 0.0406413 -0.0325237 
-0.0851425 0.0733093 -0.0726601 
-0.0713045 0.0733525 -0.0588681 
-0.0720875 0.0732844 -0.0595009 
-0.0729177 0.0732113 -0.0600536 
-0.0897219 0.095053 -0.0878856 
-0.0781534 0.0727155 -0.0648719 
-0.0789658 0.0726266 -0.0654345 
-0.103693 0.118355 -0.0909653 
-0.041058 0.0442269 -0.0305394 
-0.0861419 0.0773508 -0.0752613 
-0.11493 0.0545411 -0.0874433 
-0.0813101 0.0724206 -0.0673325 
-0.0470327 0.0425089 -0.0312307 
-0.0898966 0.0620266 -0.0713296 
-0.0766242 0.040174 -0.0639251 
-0.0872338 0.0718333 -0.0729071 
-0.0882356 0.0718276 -0.0731516 
-0.019338 0.019409 -0.0390925 
0.00122083 0.0379298 -0.0319946 
-0.0865723 0.0921986 -0.0892144 
0.00314978 0.0513951 -0.0530434 
-0.0893465 0.0718045 -0.0732535 
-0.0685578 0.00169009 -0.085813 
-0.0915651 0.0717353 -0.0735187 
-0.0492362 0.0478565 -0.0309683 
-0.113114 0.0685117 -0.08975 
-0.119742 0.0571387 -0.106209 
-0.0940375 0.0715393 -0.0752287 
-0.101026 0.00060774 -0.091012 
-0.0960477 0.0712867 -0.0776553 
-0.0978911 0.0712081 -0.0784602 
-0.0648471 0.0449426 -0.0357011 
-0.128224 0.0982607 -0.105476 
-0.100808 0.0710572 -0.0794608 
-0.0331901 0.0177554 -0.0366006 
-0.105103 0.0707611 -0.0820015 
-0.10588 0.0706931 -0.0826378 
0.00935452 0.0312745 -0.0357282 
-0.108218 0.07048 -0.0845426 
-0.108931 0.0704035 -0.085281 
-0.0620004 0.0204754 -0.041318 
-0.11164 0.0740847 -0.0908682 
-0.0581041 0.0367526 -0.0342215 
-0.061153 0.0088296 -0.0562117 
-0.0205426 0.028411 -0.0347301 
-0.010207 0.041993 -0.0379901 
-0.0273076 0.0208254 -0.0365713 
0.00541442 0.0325874 -0.0330178 
-0.110969 0.0701603 -0.0876969 
-0.112153 0.0699496 -0.0895263 
-0.0284301 0.0528345 -0.0314398 
-0.114853 0.0696098 -0.0927863 
-0.0252647 0.0194838 -0.0369527 
-0.115458 0.0695073 -0.0937334 
-0.0613099 0.0863662 -0.0574309 
-0.0695174 0.0610317 -0.0413981 
-0.0114595 0.04881 -0.0374004 
-0.0736314 0.0917731 -0.0851854 
-0.102243 0.00558741 -0.0717889 
-0.0935605 0.118634 -0.0958692 
-0.0181065 0.0837424 -0.0452732 
-0.0429756 0.00862796 -0.0379643 
-0.00553695 0.0471823 -0.0412603 
-0.114154 0.0532592 -0.0866254 
-0.0379668 0.0415726 -0.0313016 
-0.109649 0.0635018 -0.0833409 
-0.0182971 0.086507 -0.0476997 
-0.100997 0.0288434 -0.101156 
-0.119481 0.0879064 -0.0778947 
-0.098573 0.113121 -0.0911557 
-0.0496094 0.0910648 -0.0540322 
-0.118726 0.0549132 -0.100085 
-0.0478644 0.0383821 -0.0315545 
-0.0868938 0.00431712 -0.0671685 
-0.0777724 0.05982 -0.0491061 
-0.052681 0.0883254 -0.0525774 
-0.0930298 0.12102 -0.101884 
-0.0408791 0.0688789 -0.0352512 
-0.0439551 0.0741278 -0.0384901 
0.010644 0.0442897 -0.050739 
-0.0442086 0.0664676 -0.0357756 
-0.125164 0.106235 -0.113242 
-0.0718041 0.0252004 -0.0489051 
-0.0925809 0.0169663 -0.0806669 
-0.113366 0.0423953 -0.111042 
-0.0808277 0.0950169 -0.0944117 
-0.0522199 0.0733109 -0.0458729 
-0.059329 0.0450041 -0.0350791 
-0.0283185 0.0954591 -0.054132 
-0.055653 0.0731224 -0.0479823 
-0.0573492 0.0730207 -0.0490308 
-0.0581463 0.0729646 -0.0496322 
-0.0589754 0.0729006 -0.0501852 
-0.0439792 0.0625945 -0.0340642 
-0.0605907 0.0727772 -0.0513744 
-0.073436 0.0237319 -0.0616046 
-0.111276 0.0904344 -0.0812529 
-0.0576475 0.0708145 -0.0464062 
-0.0620674 0.083652 -0.0559085 
-0.0638999 0.0725252 -0.053611 
-0.0656122 0.0723977 -0.0546213 
-0.0626816 0.00185997 -0.0875825 
-0.067938 0.0721969 -0.0565699 
-0.105705 0.0512513 -0.0788406 
-0.0926635 0.0689144 -0.0733291 
-0.0280848 0.00581263 -0.0509045 
-0.0740449 0.0717935 -0.0599763 
-0.077812 0.0714247 -0.063349 
-0.0785995 0.0713624 -0.0639842 
-0.0391248 0.0848839 -0.0455426 
-0.0992479 0.105935 -0.090313 
-0.0830116 0.0708981 -0.0682117 
-0.0133087 0.0661822 -0.0387949 
-0.0859011 0.07061 -0.0711396 
-0.0867289 0.0705343 -0.0716873 
-0.0875319 0.0704865 -0.0722778 
-0.0894908 0.0704081 -0.072881 
-0.0925851 0.0703049 -0.0736233 
-0.0934318 0.070244 -0.0741599 
0.0144133 0.0423074 -0.04786 
-0.0737708 0.0579635 -0.0436972 
-0.0941716 0.0701518 -0.0748497 
-0.0948277 0.0700657 -0.0756864 
-0.106949 0.0770325 -0.0879019 
-0.0844908 0.00223647 -0.0702989 
-0.0955548 0.0700003 -0.0764126 
-0.100758 0.117377 -0.0906524 
-0.129426 0.0772143 -0.0957553 
-0.0999898 0.0697364 -0.0787145 
-0.0886689 0.00311473 -0.0682989 
-0.117621 0.0739399 -0.102393 
-0.102136 0.0863856 -0.0832371 
-0.106946 0.0692667 -0.0826634 
-0.0628446 0.0927127 -0.0693474 
-0.107731 0.0691988 -0.0832904 
-0.111869 0.0686939 -0.087959 
-0.113739 0.0684255 -0.0906771 
-0.0930426 0.0729825 -0.0750905 
-0.0522274 0.046237 -0.0319351 
-0.114334 0.0683147 -0.0915573 
-0.0804021 0.0576724 -0.0586281 
-0.100386 0.0350725 -0.083018 
-0.114925 0.0682155 -0.0925118 
-0.0928303 0.00316613 -0.0987699 
-0.0459512 0.0777437 -0.0451138 
-0.0412469 0.100671 -0.0772706 
-0.0876431 0.0167747 -0.0717462 
-0.118364 0.074224 -0.0931038 
-0.0405371 0.100816 -0.0763572 
-0.0383354 0.101338 -0.0735292 
-0.0331082 0.100719 -0.0668437 
-0.0324935 0.100507 -0.0660513 
-0.0391895 0.10037 -0.0637238 
0.00255542 0.0298385 -0.0321675 
-0.021015 0.0910754 -0.051241 
-0.0220807 0.0910051 -0.0504391 
-0.0148197 0.0276909 -0.0363575 
-0.0290953 0.043133 -0.0330228 
-0.0433648 0.0994019 -0.0624486 
-0.0497841 0.0132614 -0.0411355 
-0.0924922 0.0716914 -0.073928 
-0.10188 0.100334 -0.0870735 
-0.0962613 0.121057 -0.0993606 
-0.0416126 0.0317824 -0.0325118 
-0.0159292 0.0779403 -0.0425066 
-0.121436 0.107105 -0.0864385 
-0.0333787 0.00869326 -0.0381961 
-0.118209 0.0532088 -0.114373 
-0.0361102 0.0162858 -0.0362191 
-0.0543555 0.0130592 -0.043179 
-0.0910639 0.0200036 -0.0820273 
-0.0781259 0.017449 -0.0548698 
-0.0618062 0.0700914 -0.0470944 
-0.0486337 0.0911309 -0.0537002 
-0.0830247 0.0880233 -0.0834106 
-0.0536419 0.0882522 -0.0529242 
-0.117152 0.0727144 -0.103002 
-0.0825379 0.0855147 -0.0801071 
-0.0900581 0.00546071 -0.0677555 
-0.12127 0.0850004 -0.0784734 
-0.0413154 0.0729374 -0.036907 
-0.0423525 0.072896 -0.0371368 
-0.0510921 0.00908116 -0.0414341 
-0.0472143 0.0726677 -0.0387512 
-0.105627 0.0345608 -0.0905254 
-0.115337 0.11956 -0.107741 
-0.076391 0.00544798 -0.0481579 
-0.0488252 0.0725366 -0.0398762 
-0.0761604 0.0661441 -0.0597044 
-0.0806014 0.0531504 -0.0624315 
-0.0822184 0.0736105 -0.0698213 
-0.12216 0.0819715 -0.0803308 
-0.0495297 0.0724549 -0.040607 
-0.0649467 0.0362749 -0.0383785 
-0.0735458 0.0220701 -0.0645306 
-0.0437747 0.0357677 -0.0321547 
-0.0373921 0.026479 -0.0326224 
-0.0533592 0.0719002 -0.045784 
-0.0760093 0.0373745 -0.0507948 
-0.0540967 0.0718419 -0.0465218 
-0.0593957 0.0463979 -0.0351012 
0.0162947 0.0364671 -0.0480958 
-0.0548865 0.0717803 -0.0471583 
-0.0557686 0.0717675 -0.0476058 
-0.0791475 0.0912658 -0.0853963 
-0.0921722 0.08514 -0.0856312 
-0.0738645 0.045413 -0.0439938 
-0.0581186 0.0715372 -0.0495018 
-0.0292202 0.0841501 -0.0428303 
-0.0988127 0.0990747 -0.086723 
-0.0785676 0.0150212 -0.0519744 
-0.0640383 0.0711416 -0.0532296 
-0.0866789 0.0610998 -0.0668805 
-0.0657513 0.0710349 -0.0542646 
-0.0681262 0.0708221 -0.0560906 
-0.12214 0.115157 -0.102373 
-0.0691114 0.0707812 -0.0564123 
-0.0370863 0.00702425 -0.0516148 
-0.0699442 0.0707135 -0.0569564 
-0.0722974 0.0705093 -0.05885 
-0.0456311 0.0072839 -0.0765966 
-0.0763297 0.0522861 -0.0446299 
-0.0912897 0.0163614 -0.0753417 
-0.0751094 0.0703722 -0.060001 
-0.078877 0.0700023 -0.0633766 
-0.0589908 0.0408058 -0.0351493 
-0.0802799 0.0698225 -0.0648883 
-0.115094 0.0651672 -0.0904513 
-0.0918595 0.0450104 -0.0719156 
-0.0826668 0.0696448 -0.0667448 
-0.0854015 0.0827307 -0.0789765 
-0.0862892 0.0692442 -0.0703548 
-0.087055 0.0691618 -0.0710064 
-0.0886587 0.0690588 -0.0721988 
-0.0313389 0.00505291 -0.0611718 
-0.0907627 0.0690077 -0.0725773 
-0.0935034 0.0688488 -0.0738841 
-0.0827413 0.0526478 -0.0665979 
-0.0775719 0.0422623 -0.0590597 
-0.0942887 0.0687869 -0.0745119 
-0.072937 0.0440676 -0.0434638 
-0.104186 0.0412551 -0.0801451 
-0.0969914 0.0686098 -0.0758338 
-0.0126805 0.0223326 -0.0335493 
-0.101324 0.0683494 -0.0783112 
-0.0387901 0.0703114 -0.0350085 
-0.0817128 0.0802503 -0.0751603 
-0.102293 0.0682971 -0.0786531 
-0.0156687 0.0174949 -0.0377045 
-0.0384533 0.06489 -0.0330209 
-0.0708131 0.0801166 -0.0623092 
-0.105603 0.068039 -0.0808926 
-0.104324 0.073442 -0.0835467 
0.00788148 0.0417669 -0.0360308 
-0.107167 0.0679009 -0.0821581 
-0.0688604 0.0843003 -0.0640745 
0.00105083 0.0625328 -0.0522912 
-0.107946 0.0678294 -0.082782 
-0.118097 0.0480171 -0.101733 
-0.095791 0.0793435 -0.082769 
-0.0948252 0.111093 -0.0929681 
-0.109543 0.0676903 -0.0839805 
-0.106597 0.00302874 -0.0802073 
-0.00151504 0.0325409 -0.0309108 
-0.11087 0.0675199 -0.0856475 
-0.113446 0.06715 -0.0890483 
-0.0774292 0.0413807 -0.0528651 
-0.105211 0.105703 -0.0898426 
-0.0177234 0.0326614 -0.0345692 
-0.11631 0.0932165 -0.0802191 
-0.115118 0.0668452 -0.0920998 
-0.100535 0.0134354 -0.0844392 
-0.133424 0.083298 -0.101203 
-0.121833 0.114303 -0.0974888 
-0.0190437 0.0895621 -0.0508642 
-0.0205403 0.0903648 -0.0506277 
-0.0624038 0.071263 -0.0520767 
-0.0557706 0.0693674 -0.0417561 
-0.0839079 0.00206418 -0.0745105 
-0.0278008 0.0969487 -0.0578409 
-0.108498 0.121242 -0.103714 
0.00279549 0.0204375 -0.0371524 
-0.0972488 0.0151065 -0.0781988 
0.003553 0.0298103 -0.0326198 
-0.0291341 0.016526 -0.0368005 
-0.0298413 0.0377777 -0.0323292 
-0.0940419 0.000633497 -0.0886074 
-0.100239 0.0879091 -0.0833568 
-0.113298 0.0918425 -0.0806067 
-0.118835 0.0527172 -0.110172 
-0.0759055 0.0703106 -0.0606145 
-0.0613869 0.0727156 -0.051987 
-0.0571745 0.0176985 -0.0411494 
-0.0613161 0.093318 -0.0674105 
-0.0836612 0.0879281 -0.0842666 
-0.105982 0.00561898 -0.081561 
-0.017713 0.0827696 -0.0447712 
-0.0816819 0.0855589 -0.0795921 
-0.0510893 0.06059 -0.0330593 
-0.126623 0.0860081 -0.0832875 
-0.0729644 0.0772679 -0.0623431 
-0.0434967 0.0715202 -0.0370057 
-0.125719 0.109805 -0.0957074 
-0.0455096 0.0714361 -0.037581 
-0.107261 0.0405321 -0.0845425 
-0.0848715 0.074684 -0.0732506 
-0.0482831 0.0712794 -0.0387537 
-0.0500618 0.0989732 -0.0797938 
-0.0491135 0.0712053 -0.0392876 
-0.0498375 0.0711358 -0.0399961 
-0.0416641 0.082087 -0.0449196 
-0.0526701 0.0707575 -0.042951 
-0.0562535 0.0704959 -0.0448324 
-0.0743525 0.0361675 -0.0479931 
-0.0573756 0.0866749 -0.054297 
0.00880474 0.0206574 -0.0428708 
-0.0650112 0.0698686 -0.0495552 
-0.0885593 0.00237179 -0.0698003 
-0.0922239 0.0865875 -0.0854132 
-0.116281 0.114058 -0.0906812 
-0.0296356 0.0750765 -0.0379525 
-0.103202 0.0682418 -0.0790861 
-0.0841135 0.021165 -0.0702769 
-0.126764 0.107873 -0.107217 
-0.0724787 0.06915 -0.0584068 
-0.0735319 0.0690974 -0.0586066 
-0.075202 0.0689926 -0.0596981 
0.0130166 0.0219315 -0.0496822 
-0.0796366 0.0685137 -0.0638796 
-0.0549945 0.0957011 -0.0639388 
-0.0814681 0.0684487 -0.0647434 
-0.0823255 0.0683972 -0.0652633 
-0.0685233 0.0829888 -0.0625427 
-0.0025341 0.0529454 -0.0448497 
-0.0992766 0.0683992 -0.0778305 
-0.0583947 0.0704047 -0.0453765 
-0.0830499 0.0682845 -0.0659537 
-0.0837324 0.0681848 -0.0667214 
-0.0858933 0.0679569 -0.0689282 
-0.0696535 0.0301116 -0.0433664 
-0.086598 0.0678753 -0.0696767 
-0.109935 0.0553637 -0.080061 
-0.0922183 0.0730651 -0.0745212 
-0.0164508 0.0219389 -0.0369461 
-0.0908843 0.0676048 -0.0722539 
-0.0354332 0.0863867 -0.0450867 
-0.0234307 0.0714046 -0.0366231 
-0.0381149 0.00446648 -0.0675698 
-0.0927783 0.0675151 -0.0730002 
-0.0647624 0.072471 -0.0541218 
-0.120458 0.107149 -0.0861246 
-0.12734 0.0915874 -0.0827797 
-0.0846817 0.00196297 -0.0752074 
-0.0935911 0.067469 -0.0735687 
-0.0953866 0.0673491 -0.0744784 
-0.0861184 0.00994756 -0.0953765 
-0.0780793 0.0946793 -0.0953771 
-0.089067 0.024428 -0.0981471 
-0.0431533 0.0469013 -0.0301299 
-0.119862 0.0611907 -0.106495 
-0.0781008 0.064475 -0.0621175 
-0.124852 0.0917887 -0.0810759 
-0.0981401 0.0672103 -0.075733 
-0.100419 0.066989 -0.0777289 
-0.101461 0.066958 -0.0779452 
-0.00263234 0.0351336 -0.0313229 
-0.104918 0.0667274 -0.0799525 
-0.105688 0.0666532 -0.0805983 
-0.106454 0.0665789 -0.0812502 
-0.107305 0.0665204 -0.0817743 
-0.108004 0.0664345 -0.0825316 
-0.108828 0.0663738 -0.0831238 
-0.127082 0.108324 -0.096307 
-0.110363 0.0662275 -0.0844168 
-0.111004 0.0661518 -0.0853199 
-0.111708 0.0660498 -0.0860155 
-0.104202 0.00624752 -0.0737517 
-0.113058 0.0658731 -0.0876101 
-0.0274937 0.0987638 -0.0639875 
-0.0679037 0.0686632 -0.050171 
-0.111323 0.117949 -0.0936925 
-0.105997 0.078538 -0.0876608 
-0.0647576 0.0738648 -0.054268 
0.00890107 0.0434834 -0.0534462 
-0.0285212 0.0988721 -0.0631289 
-0.0908515 0.0202924 -0.0780583 
-0.0383111 0.0202195 -0.036766 
-0.0616698 0.0278049 -0.0389139 
-0.0899785 0.118476 -0.100138 
-0.103255 0.0106589 -0.0762909 
-0.0838184 0.0129716 -0.0680034 
-0.127408 0.0844377 -0.0860792 
-0.0453201 0.0996658 -0.0649491 
-0.0684346 0.0776845 -0.0582628 
-0.0968294 0.0315893 -0.0849616 
-0.0987008 0.115958 -0.0916907 
-0.107845 0.0343294 -0.102681 
-0.125568 0.108106 -0.0912144 
-0.123012 0.114549 -0.113351 
-0.105084 0.0831826 -0.0850543 
-0.0754422 0.0466109 -0.0454386 
-0.0412763 0.0875201 -0.048036 
-0.113297 0.119022 -0.0984873 
-0.0259038 0.0982624 -0.0641208 
-0.0796856 0.0725542 -0.0661659 
-0.0842311 0.0878752 -0.0849864 
-0.080863 0.0855725 -0.0790174 
-0.102779 0.121594 -0.100982 
-0.0397739 0.0702896 -0.0352959 
-0.0760613 0.090997 -0.0837519 
-0.0407544 0.0702594 -0.0355971 
-0.00889885 0.0734821 -0.0457985 
-0.0230401 0.0933974 -0.0538693 
-0.0417215 0.0702184 -0.035958 
-0.042643 0.0701728 -0.0363509 
-0.126288 0.108938 -0.107852 
-0.119963 0.0806234 -0.0800563 
-0.104332 0.00773172 -0.0872032 
-0.0435809 0.0701465 -0.0367089 
-0.0466715 0.0946521 -0.0556634 
-0.0483859 0.0699082 -0.0384478 
0.00125754 0.0455457 -0.0449295 
-0.0492592 0.0697911 -0.0388721 
-0.103525 0.0948162 -0.0840765 
-0.119636 0.0579731 -0.112471 
-0.124425 0.0765511 -0.0895124 
-0.107715 0.0973283 -0.0859539 
-0.124384 0.0807582 -0.112578 
-0.0714109 0.00989094 -0.0470913 
-0.106366 0.00447214 -0.0793279 
-0.0735058 0.0677032 -0.0584859 
-0.0357953 0.0914938 -0.0487916 
-0.0753153 0.067603 -0.0593524 
-0.12618 0.0830107 -0.110808 
-0.0762081 0.0675623 -0.0598193 
-0.125069 0.076608 -0.0902838 
-0.078326 0.0673127 -0.0620673 
-0.112358 0.0438532 -0.0889971 
-0.0807324 0.0671002 -0.0638919 
-0.0826012 0.0670003 -0.0646322 
-0.101791 0.0989909 -0.0863203 
-0.0924891 0.100262 -0.089223 
-0.0833612 0.0669477 -0.0653266 
-0.0846257 0.0667504 -0.0670421 
-0.0853255 0.0666623 -0.0677934 
-0.0847748 0.0720327 -0.0712178 
-0.0260213 0.0419952 -0.0324987 
-0.0885159 0.0759408 -0.0750348 
-0.124469 0.102877 -0.0848583 
-0.0868028 0.0665295 -0.0692315 
-0.049315 0.0992027 -0.078843 
-0.0620137 0.056071 -0.0358266 
-0.0881794 0.0663588 -0.0708033 
-0.0502269 0.0897331 -0.0528963 
-0.0889882 0.0662824 -0.0713693 
-0.111185 0.0619581 -0.0845128 
-0.0951955 0.104623 -0.0912005 
-0.00857225 0.0667455 -0.0418909 
-0.0875288 0.042491 -0.0691247 
-0.117355 0.0710226 -0.102723 
-0.09286 0.0661287 -0.0727075 
-0.0746164 0.0137591 -0.0483547 
-0.0975847 0.0659215 -0.0745758 
-0.099147 0.0657505 -0.075821 
-0.0970093 0.101845 -0.0887492 
-0.0793736 0.0765561 -0.0690247 
-0.101491 0.0655774 -0.0777012 
-0.0706711 0.072046 -0.0578447 
-0.102535 0.0655269 -0.0779635 
-0.0842344 0.00429125 -0.0576214 
-0.103315 0.0654636 -0.0785899 
-0.108034 0.0650385 -0.0823346 
-0.0905701 0.016441 -0.0746066 
-0.109629 0.0649001 -0.0835275 
-0.00524982 0.0378676 -0.0339785 
-0.0844045 0.0909379 -0.0898566 
-0.113989 0.0644424 -0.0879146 
-0.039826 0.037301 -0.032118 
-0.02808 0.0990773 -0.0647423 
-0.127024 0.0995999 -0.107119 
0.00729428 0.0339366 -0.0338092 
-0.120963 0.0785856 -0.0829287 
-0.0829351 0.0984311 -0.0949634 
-0.0537299 0.0922194 -0.0570088 
-0.0445549 0.0547542 -0.0316873 
-0.110519 0.0945455 -0.0834303 
-0.0664553 0.0929995 -0.0872773 
-0.132055 0.0973328 -0.0943 
-0.120573 0.116459 -0.102799 
-0.101195 0.0586966 -0.0755569 
-0.00116054 0.0653269 -0.0502029 
-0.0677429 0.0909478 -0.077712 
-0.0618665 0.0809617 -0.0540196 
-0.0568113 0.0970174 -0.0729023 
-0.0273841 0.0981141 -0.0616658 
-0.0369106 0.086386 -0.0454362 
-0.0102418 0.0149283 -0.038618 
0.00613713 0.0433226 -0.0551749 
-0.0508937 0.069683 -0.0400509 
-0.0993145 0.107329 -0.0908997 
-0.0350977 0.0443999 -0.0315289 
-0.0608597 0.0478261 -0.034821 
-0.0500963 0.00920666 -0.0409622 
-0.098928 0.120658 -0.0961178 
-0.0135308 0.0251066 -0.0344348 
-0.0505101 0.0945717 -0.0583048 
-0.0382343 0.101 -0.0668711 
-0.132156 0.0811484 -0.0930134 
-0.0462132 0.0913148 -0.0519284 
-0.131257 0.0999017 -0.0968178 
-0.0849534 0.0878174 -0.0857458 
-0.126211 0.0860584 -0.0822448 
-0.0622828 0.0421211 -0.0356488 
-0.0827752 0.00833292 -0.0520493 
-0.0561305 0.0881007 -0.0545718 
-0.0379584 0.068983 -0.0342913 
-0.0399668 0.0689217 -0.034834 
-0.0775191 0.0889287 -0.0810312 
-0.0427222 0.0687908 -0.0360662 
-0.0476763 0.0685731 -0.0375742 
-0.0486358 0.068502 -0.0379118 
-0.0750833 0.074401 -0.0624055 
-0.0495062 0.0684856 -0.0383829 
-0.0869297 0.0100231 -0.0982177 
-0.051397 0.0683734 -0.0391325 
-0.0534843 0.0682906 -0.0395777 
0.0159662 0.0390897 -0.0495301 
-0.0577022 0.0681371 -0.0403853 
-0.00703981 0.0430193 -0.0398959 
-0.0587871 0.0680591 -0.0405533 
-0.0624185 0.0679261 -0.0422023 
-0.00120522 0.0209974 -0.0349952 
-0.043383 0.0087126 -0.0604768 
-0.046349 0.0507582 -0.0305373 
-0.109233 0.0890139 -0.0821101 
-0.0608047 0.0877498 -0.0584181 
-0.0649935 0.0678712 -0.0441202 
-0.0540856 0.0297559 -0.0342398 
-0.103424 0.111635 -0.0890638 
-0.0324914 0.0280515 -0.0333888 
-0.0443788 0.055151 -0.0318444 
-0.0656975 0.0677123 -0.044484 
-0.0699891 0.0370521 -0.0436582 
0.00711719 0.0379451 -0.0340623 
-0.00545767 0.0422305 -0.040181 
-0.0377213 0.0347074 -0.0322286 
-0.101084 0.103062 -0.0892833 
-0.0415832 0.0715793 -0.0363294 
-0.0682503 0.0919961 -0.0850652 
-0.077486 0.0659727 -0.061368 
-0.0625476 0.0587036 -0.0371623 
-0.124181 0.0890522 -0.0799425 
-0.0731725 0.025839 -0.0536092 
-0.101993 0.00190852 -0.0738078 
-0.0989712 0.0278601 -0.100314 
-0.078129 0.0658782 -0.062222 
-0.0800065 0.0657765 -0.0629979 
-0.082773 0.0656462 -0.0642134 
-0.0835359 0.0655673 -0.0648611 
-0.0848633 0.0653803 -0.0664747 
-0.0862275 0.0652056 -0.0680576 
-0.0228398 0.0778766 -0.040192 
-0.0876163 0.0650623 -0.06967 
-0.0715123 0.0281742 -0.0477408 
-0.0890749 0.0648964 -0.071073 
-0.0834469 0.0854624 -0.0805401 
-0.0479445 0.00513275 -0.0477495 
-0.0938367 0.0646811 -0.0728855 
-0.099392 0.00173354 -0.07324 
-0.0947689 0.0646446 -0.0732615 
-0.09588 0.0646131 -0.0733896 
-0.0967281 0.00163879 -0.0727038 
-0.0999491 0.0642891 -0.076269 
-0.0453276 0.0508303 -0.0302849 
-0.0120375 0.00581805 -0.0601509 
-0.100754 0.0642284 -0.0768771 
-0.103255 0.064052 -0.0785292 
-0.0970663 0.026719 -0.101904 
-0.0558079 0.0493547 -0.0336522 
-0.111083 0.039154 -0.0919899 
-0.0484089 0.0259085 -0.0331195 
-0.0460318 0.0425478 -0.0312344 
-0.0553644 0.0758938 -0.0488139 
-0.0933354 0.00157119 -0.0789556 
-0.104973 0.0639479 -0.0795561 
-0.108901 0.0635815 -0.0826777 
-0.00845483 0.0387733 -0.0383623 
-0.0554638 0.0577572 -0.0332503 
-0.111125 0.0633535 -0.0847789 
-0.0356131 0.0566083 -0.0311237 
-0.0661225 0.0922407 -0.0823871 
-0.0513465 0.0816578 -0.0482996 
-0.110116 0.0382401 -0.108829 
-0.0559588 0.0521275 -0.033726 
-0.129594 0.0885074 -0.10721 
0.00876383 0.0354637 -0.0350251 
-0.0236102 0.0873646 -0.0458559 
-0.103499 0.0709164 -0.0808058 
-0.0640546 0.0305934 -0.0391563 
-0.0770028 0.021335 -0.0684492 
-0.116902 0.0735769 -0.111802 
-0.110242 0.0457308 -0.0839587 
-0.0799453 0.0890887 -0.0818513 
-0.0445097 0.100022 -0.0792715 
-0.0780595 0.0779713 -0.0694099 
-0.0592331 0.00962842 -0.0440231 
-0.0230769 0.0922451 -0.0517287 
-0.0464721 0.0841895 -0.0479072 
-0.0387208 0.10133 -0.0718426 
-0.119311 0.113829 -0.09245 
-0.092108 0.0368377 -0.0737462 
-0.044125 0.0818914 -0.0466305 
-0.0381115 0.0676333 -0.0338554 
-0.0400533 0.067552 -0.03452 
-0.0459536 0.0672958 -0.0364242 
-0.0470414 0.0672508 -0.0365749 
-0.0531654 0.0670745 -0.0380473 
-0.0313164 0.0205745 -0.0368672 
-0.0554233 0.0670001 -0.0382341 
-0.0761619 0.0379566 -0.0600535 
-0.05847 0.0668915 -0.0390064 
-0.0604206 0.0668409 -0.0396291 
-0.0167477 0.0753478 -0.0409672 
-0.0613319 0.0668002 -0.0400394 
-0.0621872 0.0667588 -0.0405511 
-0.0630212 0.0666773 -0.0410956 
0.0160638 0.0365248 -0.0470433 
-0.0913109 0.0329629 -0.075755 
-0.0271369 0.0446321 -0.0326533 
-0.0664073 0.0664411 -0.0431995 
-0.0886364 0.0153468 -0.0718848 
-0.093272 0.0880241 -0.084954 
0.0133072 0.029768 -0.04149 
-0.0921854 0.000236785 -0.0987998 
-0.00442734 0.0168763 -0.0376022 
-0.0407814 0.0359006 -0.0322678 
-0.0277974 0.0777553 -0.0391725 
-0.0331245 0.0164187 -0.0362835 
-0.0776103 0.0423406 -0.0580381 
-0.0688242 0.0662489 -0.0449753 
-0.0707388 0.0659891 -0.0475579 
-0.0735731 0.0656032 -0.0504804 
-0.0422709 0.0169944 -0.0382997 
-0.060538 0.0679815 -0.0409231 
-0.111784 0.0522712 -0.0824414 
-0.12101 0.108459 -0.0872679 
-0.0859812 0.106594 -0.0991373 
-0.069424 0.0926131 -0.0865751 
-0.0620498 0.0930498 -0.0683655 
-0.0403864 0.0958502 -0.0542848 
-0.076808 0.0645332 -0.0608058 
-0.0772791 0.0645361 -0.0615287 
-0.118874 0.0545766 -0.113656 
-0.0978319 0.0147029 -0.08279 
-0.0207055 0.0340657 -0.0330336 
-0.0792435 0.0644595 -0.0621755 
-0.117478 0.0749116 -0.112195 
-0.0843452 0.06411 -0.0653015 
-0.0876352 0.000784099 -0.0870181 
-0.0188752 0.0381644 -0.0333276 
-0.0908762 0.0633905 -0.0717665 
-0.093874 0.063296 -0.0726328 
-0.106728 0.0339382 -0.106056 
-0.0331357 0.0672289 -0.0336573 
-0.0574577 0.0744427 -0.0490419 
-0.0662983 0.0765213 -0.0558783 
-0.0155641 0.0828409 -0.0463543 
-0.0850429 0.064022 -0.0660586 
-0.0959913 0.063257 -0.0729875 
-0.00361588 0.076114 -0.0543524 
-0.0243088 0.0209457 -0.0366907 
-0.0970994 0.0632334 -0.0731422 
-0.0829254 0.0313761 -0.0676937 
-0.117391 0.072324 -0.108542 
0.00334617 0.0596491 -0.0554821 
-0.100899 0.0628517 -0.0764882 
-0.104478 0.0626347 -0.0783011 
-0.107807 0.0623933 -0.0804994 
-0.0692337 0.00730522 -0.0465675 
-0.0904094 0.103562 -0.0935774 
-0.111993 0.0618861 -0.0850792 
-0.0763274 0.0509151 -0.0444761 
-0.10624 0.089074 -0.0828464 
-0.0722108 0.0718911 -0.0591456 
-0.114378 0.0616852 -0.0869409 
-0.0984144 0.0658458 -0.0751322 
-0.0271581 0.0165284 -0.0373819 
-0.104719 0.117266 -0.0900556 
-0.0913804 0.0281134 -0.0836142 
-0.0335945 0.0797527 -0.0405524 
-0.0187288 0.087339 -0.0482631 
-0.020863 0.00581566 -0.053688 
-0.1316 0.0818492 -0.103547 
-0.10749 0.0384225 -0.0872415 
-0.0936908 0.00168411 -0.0998346 
-0.023906 0.0393812 -0.032571 
0.00801859 0.0441358 -0.0524374 
