ply
format ascii 1.0
comment Created by CloudCompare v2.11.3 (Anoia)
comment Created 4/24/25 11:26 AM
obj_info Generated by CloudCompare!
element vertex 1513
property float x
property float y
property float z
end_header
-0.0671162 0.144942 -0.1722 
-0.0975256 0.0806821 -0.131987 
-0.0722952 0.115125 -0.162392 
-0.0681093 0.0939779 -0.11137 
-0.0518122 0.130043 -0.105703 
-0.0446627 0.143194 -0.113079 
-0.000103477 0.0112141 -0.0659454 
-0.0517904 0.0637038 -0.123937 
-0.113726 0.117957 -0.121136 
0.000190238 0.0391849 -0.0982319 
-0.0683856 0.0265124 -0.119204 
-0.0891233 0.128772 -0.144451 
-0.0445727 0.145827 -0.118916 
-0.044101 0.0628392 -0.121004 
-0.0672089 0.139879 -0.110986 
-0.0689122 0.14465 -0.172209 
-0.0231087 0.0348051 -0.122907 
-0.0357544 0.0195067 -0.119708 
-0.0864813 0.0271908 -0.117079 
-0.0260242 0.0402549 -0.126493 
-0.0349347 0.0872941 -0.104047 
0.00248702 0.0211233 -0.0868126 
0.00787797 0.0600865 -0.071484 
-0.0886326 0.126414 -0.150005 
-0.0343342 0.137851 -0.110644 
-0.0865891 0.101942 -0.129467 
-0.0929014 0.114298 -0.138156 
-0.00541115 0.0529227 -0.104185 
-0.0346576 0.131585 -0.110327 
-0.0633582 0.142326 -0.169636 
-0.0512254 0.150482 -0.111304 
-0.0655843 0.0626485 -0.13196 
-0.066192 0.142324 -0.168816 
-0.0770606 0.0828486 -0.12777 
-0.0814083 0.112659 -0.130587 
0.0014875 0.0718967 -0.059306 
-0.0850362 0.11416 -0.124662 
-0.075218 0.126412 -0.142389 
-0.0778187 0.0689595 -0.133952 
-0.0571869 0.0954521 -0.0888823 
-0.0680963 0.0193527 -0.116938 
-0.0681275 0.133313 -0.169295 
-0.061522 0.0827136 -0.121695 
-0.0847348 0.128922 -0.158265 
-0.0235327 0.0611901 -0.120943 
-0.0596003 0.010078 -0.118923 
0.000177965 0.0433963 -0.0969012 
-0.0111358 0.0126063 -0.0996096 
-0.062982 0.0797539 -0.123784 
-0.0817262 0.125248 -0.136059 
-0.0591799 0.133814 -0.110379 
0.00447826 0.0411283 -0.0884473 
-0.0120185 0.0256376 -0.109276 
0.00842898 0.0343905 -0.062123 
-0.0771917 0.127288 -0.106677 
-0.0790882 0.100398 -0.120458 
-0.00894345 0.00742856 -0.0701913 
-0.013668 0.0925675 -0.0657913 
-0.0721202 0.00599088 -0.120158 
-0.0659293 0.0353418 -0.122362 
-0.0500844 0.129415 -0.115604 
-0.0813361 0.106537 -0.104494 
-0.0222555 0.0982854 -0.0725065 
-0.0645008 0.123719 -0.104023 
-0.00436449 0.0853982 -0.0720583 
-0.0936162 0.00515884 -0.108039 
0.00557808 0.0647199 -0.0648202 
-0.0907027 -0.000874415 -0.118846 
-0.0497403 0.0552087 -0.124304 
-0.0832452 0.117033 -0.104277 
-0.0373377 0.00748491 -0.0863883 
-0.0728355 0.0956554 -0.104482 
-0.042846 0.00316597 -0.113134 
-0.10233 0.0803694 -0.131787 
-0.0674754 0.00785473 -0.118418 
-0.0193415 0.0957171 -0.0820207 
-0.00927297 0.0785952 -0.0913661 
-0.0607395 0.0940038 -0.0911877 
-0.0749986 0.128844 -0.106655 
-0.0719225 0.123246 -0.144982 
-0.0665591 0.125144 -0.10364 
-0.0703607 0.0651934 -0.132245 
-0.0687552 0.0914065 -0.118396 
0.0039615 0.0689429 -0.0635906 
-0.0693262 0.138513 -0.111518 
-0.0625803 0.0931252 -0.0957759 
-0.0940238 0.0040915 -0.104733 
0.00315052 0.0435737 -0.0921385 
-0.0886593 0.127877 -0.148895 
-0.066763 0.0945693 -0.105652 
-0.0136756 0.00809873 -0.100683 
-0.0662638 0.126933 -0.119723 
-0.0889729 0.0797908 -0.130513 
-0.0863856 0.122924 -0.130987 
-0.0848302 0.0903267 -0.128984 
-0.0425102 0.0915675 -0.100072 
-0.0875495 0.025143 -0.110393 
-0.0750969 0.0964064 -0.105091 
-0.0855171 0.121216 -0.129863 
-0.0672037 0.0107648 -0.117298 
-0.0783244 0.054446 -0.13517 
-0.0107091 0.0906121 -0.0788339 
-0.0762806 0.0546046 -0.134682 
-0.0846839 0.128102 -0.137663 
-0.0873544 0.130326 -0.145482 
-0.0460502 0.0568974 -0.122798 
-0.033997 0.097624 -0.0899734 
-0.0669659 0.0538793 -0.132493 
-0.0913862 0.11967 -0.143267 
0.00483379 0.0450594 -0.0874863 
-0.0542489 0.147638 -0.109923 
-0.0152631 0.0885265 -0.0917874 
-0.0881554 0.128112 -0.137734 
-0.109844 0.0919954 -0.131512 
-0.0101271 0.0862029 -0.0874188 
-0.0661104 0.00103468 -0.0927233 
-0.0796305 0.0138533 -0.113875 
-0.0804536 0.10313 -0.122752 
-0.0843321 0.112795 -0.146899 
0.00413926 0.0342898 -0.0851676 
-0.0372505 0.077514 -0.11249 
-0.110033 0.11962 -0.118796 
-0.0951473 0.000892069 -0.108388 
-0.00648815 0.0872921 -0.067475 
0.00954193 0.0293306 -0.0646177 
-0.0964368 0.0729282 -0.131941 
-0.105739 0.121398 -0.111279 
-0.0596785 0.00585332 -0.1212 
-0.0377423 0.100381 -0.081528 
-0.0228143 0.0234586 -0.118221 
-0.067525 0.134623 -0.170155 
-0.0344398 0.149133 -0.120529 
-0.0890427 0.118379 -0.123216 
-0.0426751 0.00720078 -0.0837785 
0.00679397 0.0496943 -0.0754703 
-0.0713238 0.135339 -0.157761 
-0.0553373 0.0246391 -0.11154 
-0.0318927 0.00781508 -0.0890643 
-0.068717 0.0423269 -0.130139 
-0.0157237 0.0949379 -0.0758326 
-0.118912 0.0962108 -0.124354 
-0.0577812 0.0838359 -0.118015 
-0.0765109 0.0841763 -0.126638 
-0.00132642 0.0808348 -0.0695553 
-0.0340146 0.0551189 -0.128732 
-0.105596 0.0335679 -0.10948 
-0.0450271 0.152088 -0.112558 
-0.074554 0.133124 -0.150973 
-0.0763208 0.131636 -0.108545 
-0.0829025 0.111081 -0.104418 
-0.112824 0.0678004 -0.123225 
-0.0823043 0.0219844 -0.100604 
-0.0806969 0.121861 -0.133912 
-0.00221546 0.014343 -0.0907372 
-0.051231 0.0931668 -0.0982798 
-0.107382 0.11695 -0.126461 
-0.0554232 0.0189135 -0.110707 
-0.0436068 0.0149224 -0.119627 
-0.0839927 0.0281432 -0.12076 
-0.060236 0.0947361 -0.0883198 
-0.0122753 0.0053128 -0.0988128 
-0.0791117 0.102601 -0.118492 
-0.115233 0.0517409 -0.118359 
-0.0752294 0.118675 -0.139852 
-0.0151172 0.00657202 -0.10198 
-0.0698844 0.136434 -0.108084 
-0.0727773 0.135274 -0.10933 
-0.0366293 0.0788719 -0.111371 
0.010954 0.0384782 -0.0580064 
-0.1106 0.120372 -0.115119 
-0.0577393 0.0733348 -0.124985 
-0.0660314 0.0267161 -0.119255 
-0.057996 0.0949979 -0.0899125 
-0.117903 0.103238 -0.122735 
-0.0863656 0.130327 -0.142032 
-0.0680677 0.094748 -0.10733 
-0.10126 0.0760355 -0.129363 
-0.102618 0.107402 -0.13103 
0.00648367 0.0407688 -0.0648274 
-0.0621233 0.0614609 -0.129787 
-0.067415 0.0946736 -0.106493 
-0.0802477 0.11574 -0.132302 
0.00682201 0.0392008 -0.0669217 
-0.0124726 0.00380489 -0.0902083 
-0.070872 0.0506946 -0.133426 
-0.0900641 0.126749 -0.135696 
-0.000809958 0.0567439 -0.0959995 
-0.118662 0.103154 -0.122056 
-0.073525 0.113226 -0.155377 
-0.0565572 0.0705396 -0.124649 
-0.0586164 0.0912828 -0.104145 
-0.0847616 0.113136 -0.124138 
-0.0735465 0.0548115 -0.133402 
-0.0769635 0.121848 -0.137481 
-0.0997014 0.0674781 -0.132673 
-0.0450367 0.147203 -0.118589 
-0.0657743 0.0137796 -0.116133 
-0.0330787 0.149396 -0.117127 
-0.0723037 0.0549121 -0.133503 
-0.0418665 0.0906199 -0.100858 
0.0043781 0.0695139 -0.0738869 
-0.0675242 0.0943494 -0.0954044 
-0.0470541 0.0568681 -0.123142 
-0.0277042 0.0100216 -0.112506 
-0.0211484 0.0575096 -0.121237 
0.0011519 0.0112953 -0.0642094 
-0.0804496 0.0731281 -0.132132 
-0.0362237 0.0891124 -0.102409 
-0.0117375 0.0768027 -0.0949989 
-0.024002 0.0729729 -0.1071 
-0.0900289 0.125097 -0.147303 
-0.0303215 0.141293 -0.118599 
-0.0228718 0.00794915 -0.0931448 
-0.0476507 0.143085 -0.11271 
0.00711843 0.0406505 -0.0667873 
-0.0578399 0.14303 -0.173557 
-0.0757331 -0.000834666 -0.116032 
-0.10308 0.0405631 -0.125777 
-0.0567718 0.124719 -0.115776 
0.00749972 0.0420112 -0.0677681 
-0.0582705 0.0954266 -0.0880502 
-0.00171715 0.055972 -0.0981279 
-0.0721889 0.0708106 -0.131802 
-0.0743631 0.124947 -0.161114 
-0.0867626 0.00614903 -0.119765 
-0.0825807 0.119121 -0.130526 
-0.0870578 0.110177 -0.14028 
-0.0118344 0.089813 -0.0835478 
-0.0120362 0.0916558 -0.0787246 
0.00261425 0.0407068 -0.0928351 
-0.000896597 0.0126347 -0.0686004 
-0.0689029 0.129096 -0.108204 
-0.00625849 0.0874239 -0.0711781 
-0.0809435 0.0571241 -0.135053 
-0.119256 0.0879245 -0.125506 
-0.0540149 0.0664111 -0.124471 
-0.116111 0.0611331 -0.120367 
-0.114742 0.0597357 -0.121828 
-0.0619099 0.0170121 -0.11518 
-0.070929 0.094873 -0.0952661 
-0.0185365 0.050649 -0.120806 
-0.0900433 0.12576 -0.133484 
-0.0315128 0.136203 -0.111973 
-0.0547926 0.082726 -0.116914 
-0.0881994 0.0638365 -0.135638 
-0.0879443 0.119315 -0.126323 
0.0074932 0.0444998 -0.0713881 
-0.0577425 0.1237 -0.115486 
-0.0183583 0.088804 -0.0943734 
-0.0430448 0.0389009 -0.124836 
-0.0165355 0.0953888 -0.0716658 
-0.0457174 0.00131832 -0.116357 
-0.0857002 0.114073 -0.147796 
-0.075772 0.0947819 -0.117876 
-0.0919777 0.0250276 -0.107174 
-0.0943796 0.00363909 -0.109756 
-0.0594353 0.141318 -0.109034 
-0.05699 0.0113648 -0.119688 
-0.0835515 0.128343 -0.138406 
-0.0065361 0.0217035 -0.102395 
-0.0477656 0.0784496 -0.116215 
-0.038028 0.0814406 -0.110835 
-0.0880915 0.0871549 -0.130891 
-0.0567516 0.132028 -0.169932 
0.0092245 0.0319391 -0.0634397 
-0.0114813 0.0483137 -0.112882 
0.00791014 0.0525438 -0.0770957 
-0.00840242 0.0747492 -0.0930677 
-0.107109 0.0635516 -0.128952 
0.000117356 0.0770251 -0.0650146 
-0.0536349 0.0635529 -0.124727 
-0.0418862 0.131938 -0.105678 
-0.0108825 0.0911168 -0.0771416 
-0.0862582 0.118825 -0.104248 
-0.057949 0.0912892 -0.103267 
-0.0317828 0.101048 -0.0760309 
-0.0526752 0.00603676 -0.0954325 
-0.10278 0.0512542 -0.131796 
-0.0757074 0.140812 -0.167852 
0.005289 0.055195 -0.0600291 
-0.115309 0.0678854 -0.120076 
-0.0154906 0.0438016 -0.117258 
0.0065966 0.0577263 -0.0818228 
-0.0161515 0.0634149 -0.113486 
-0.0514841 0.0969427 -0.0882228 
-0.0805269 -0.000289291 -0.103665 
-0.0328321 0.0608652 -0.124726 
-0.0872906 0.124492 -0.132175 
-0.0776374 0.124431 -0.106022 
-0.0924836 0.108858 -0.13424 
-0.0566403 0.0945962 -0.0926135 
0.00227969 0.0595385 -0.0899087 
-0.0338083 0.141847 -0.118734 
-0.0529133 0.0971888 -0.0856303 
-0.0355541 0.100961 -0.0786925 
-0.0144976 0.00480884 -0.0747904 
-0.0478503 0.0447171 -0.123265 
-0.00477823 0.0857095 -0.0697177 
-0.0302684 0.137676 -0.113626 
-0.0525994 0.149058 -0.11411 
-0.0791263 0.0775955 -0.131004 
-0.0604251 0.0936816 -0.0930122 
-0.120125 0.116801 -0.115625 
-0.0903599 0.127316 -0.144187 
-0.0236628 0.0978407 -0.0830031 
-0.115739 0.0989941 -0.125998 
-0.0765892 0.138382 -0.171161 
-0.0812512 -0.000318009 -0.104395 
-0.0482328 0.013259 -0.122 
-0.069093 0.0149623 -0.116657 
-0.108404 0.0892195 -0.132899 
-0.0810336 0.047029 -0.135632 
-0.10599 0.11991 -0.120374 
-0.066135 0.0468143 -0.131045 
-0.0409332 0.0558307 -0.126388 
-0.00560672 0.0845961 -0.0792802 
-0.00953873 0.0215015 -0.105161 
-0.0471802 0.016638 -0.116086 
-0.0757519 0.130263 -0.107442 
-0.0856996 0.124963 -0.152852 
-0.0876326 0.126649 -0.13483 
-0.0183109 0.0478553 -0.120837 
-0.0619387 0.135219 -0.164988 
-0.0881881 0.127066 -0.135546 
-0.113241 0.0583384 -0.123208 
-0.0825229 0.054109 -0.135934 
-0.0974688 0.101232 -0.132741 
-0.0811971 0.0247866 -0.112935 
-0.0721011 0.0953106 -0.108037 
-0.122929 0.0963832 -0.118621 
-0.0833173 0.120984 -0.150067 
-0.0496087 0.00649731 -0.0875835 
-0.0536325 0.144451 -0.110535 
-0.0846806 0.132786 -0.153065 
-0.0797164 0.0877595 -0.125522 
-0.0790034 0.0688772 -0.133955 
-0.0489427 0.056719 -0.123877 
-0.0216694 0.0979637 -0.071754 
-0.008441 0.00565924 -0.0825966 
-0.0498623 0.0566408 -0.124282 
-0.0663928 0.116735 -0.163905 
-0.0248223 0.0729168 -0.107663 
-0.111453 0.0542068 -0.125485 
0.0035847 0.0664321 -0.0590243 
-0.0931677 0.122786 -0.128601 
-0.0797144 0.135659 -0.167128 
-0.0638836 0.00407245 -0.118179 
-0.0853138 0.118407 -0.104328 
-0.0606513 0.13211 -0.165283 
-0.0496003 0.0057969 -0.107734 
-0.0710824 0.0248291 -0.118459 
-0.086198 0.117019 -0.102842 
-0.0457498 0.0263125 -0.116688 
-0.0763546 0.0962226 -0.0999755 
-0.0480206 0.0843859 -0.111835 
-0.0680014 0.136585 -0.107298 
-0.0954784 0.0743243 -0.131401 
-0.0638517 0.0932866 -0.108642 
-0.100039 0.114442 -0.130826 
-0.0042988 0.0686641 -0.0943535 
-0.0805393 0.135819 -0.158714 
-0.0449983 0.133093 -0.107759 
-0.104546 0.0851341 -0.133936 
-0.0581103 0.130474 -0.168375 
-0.0101023 0.00404796 -0.093207 
-0.0201901 0.0612151 -0.11855 
-0.0680356 0.131183 -0.155791 
-0.0761393 0.0445773 -0.133694 
-0.0796273 0.0357153 -0.128814 
-0.079572 0.122939 -0.105575 
-0.0630847 0.0599503 -0.129956 
-0.0382993 0.00167347 -0.111718 
-0.059889 0.0945112 -0.0901072 
-0.0653666 0.12601 -0.157471 
-0.0734186 0.120336 -0.104761 
-0.0790742 -0.000278885 -0.10473 
-0.0534884 0.00573555 -0.101146 
-0.0036313 0.0574335 -0.101715 
-0.0497634 0.136697 -0.118945 
-0.11913 0.115549 -0.12153 
-0.00656421 0.00767621 -0.0675853 
0.00161156 0.0477185 -0.0940288 
-0.0570293 0.123476 -0.11472 
-0.0674438 0.121288 -0.155124 
-0.0834243 0.119872 -0.105141 
-0.0861729 0.0120559 -0.104062 
-0.0759231 0.0604251 -0.134088 
-0.0693126 0.135958 -0.170117 
-0.0289863 0.139574 -0.115877 
-0.0470318 0.0875417 -0.10785 
-0.0501672 0.150772 -0.11099 
-0.0347131 0.0181797 -0.119325 
-0.0383101 0.137675 -0.110589 
-0.0091337 0.0899026 -0.0708514 
-0.0202804 0.0754585 -0.102571 
-0.0986613 0.121757 -0.106798 
-0.0477779 0.0553733 -0.123692 
-0.056051 0.0127265 -0.119139 
-0.0678521 0.0740351 -0.129691 
-0.0138509 0.0935902 -0.0751241 
-0.0768812 0.0950037 -0.0961104 
-0.10119 0.0702574 -0.131362 
-0.0362977 0.0422396 -0.129136 
-0.104104 0.0744359 -0.128635 
-0.0342541 0.136439 -0.109802 
-0.0417313 0.000462849 -0.124427 
-0.0240137 0.0695578 -0.107365 
-0.104541 0.0513115 -0.130524 
-0.109327 0.104546 -0.129245 
-0.0429038 0.0867374 -0.106366 
-0.093626 0.12326 -0.139009 
-0.0713701 0.134144 -0.155638 
-0.0744412 0.0949443 -0.0952536 
-0.0791042 0.12455 -0.137098 
-0.0624884 0.12415 -0.163877 
-0.08748 0.0945141 -0.130905 
-0.0894815 0.12536 -0.132756 
-0.107992 0.120893 -0.114077 
-0.0215719 0.0177985 -0.113838 
-0.0388857 0.0976713 -0.0908899 
-0.0483434 0.0596405 -0.123282 
-0.0798538 0.0760745 -0.131538 
-0.0610027 0.124055 -0.166488 
-0.00376494 0.0502263 -0.102736 
-0.103557 0.121403 -0.112946 
0.00546929 0.0457787 -0.0855594 
0.00818725 0.0542871 -0.0735065 
-0.093919 0.0867427 -0.13286 
-0.0730055 0.123285 -0.143303 
-0.0161657 0.0136635 -0.104921 
-0.0422468 0.0544114 -0.12596 
-0.0947738 0.0259324 -0.108724 
0.00224393 0.0576637 -0.0905073 
0.00630305 0.0510398 -0.0604728 
-0.0282114 0.0344113 -0.126094 
-0.00120682 0.0785422 -0.062335 
-0.0810129 0.112593 -0.131528 
-0.0886244 0.110199 -0.138901 
-0.000339204 0.0792788 -0.075874 
-0.0866428 0.125376 -0.133551 
-0.0819123 0.102222 -0.100493 
-0.0164535 0.0380856 -0.116923 
0.0112303 0.020552 -0.061211 
-0.0798343 0.121849 -0.134564 
-0.00790905 0.0884425 -0.067094 
-0.0808211 0.128072 -0.139292 
-0.0557913 0.0705921 -0.123993 
-0.0292811 0.088652 -0.0993757 
-0.0817462 0.109874 -0.11927 
-0.0515912 0.149006 -0.114965 
-0.0241429 0.0304953 -0.12264 
-0.062441 0.0931025 -0.100066 
-0.0542195 0.0261639 -0.11163 
-0.0383956 0.0719006 -0.116076 
-0.0924015 0.114269 -0.139024 
-0.0136589 0.0655297 -0.106968 
-0.0734441 0.121743 -0.142356 
-0.0585729 0.134781 -0.119795 
-0.0454413 0.0968454 -0.0917718 
-0.0172944 0.0577943 -0.11797 
-0.0863515 0.112588 -0.101856 
-0.0769982 0.139005 -0.170845 
-0.0564859 0.0475187 -0.123878 
-0.0195759 0.057629 -0.11998 
-0.0475216 0.0377153 -0.12048 
-0.0645873 0.126594 -0.10393 
-0.0178726 0.0957553 -0.0690221 
-0.0415067 0.0990295 -0.0864081 
-0.0692403 0.119232 -0.166015 
-0.0575969 0.0847431 -0.116577 
0.0079488 0.0544748 -0.071289 
-0.0507675 0.0139666 -0.119489 
-0.0331217 0.0211706 -0.120362 
-0.08475 0.12231 -0.149846 
-0.085921 0.122173 -0.130395 
0.00369853 0.0725001 -0.0721355 
-0.0572787 0.00528919 -0.107209 
-0.114446 0.0720196 -0.118482 
-0.0812187 0.0180945 -0.110247 
-0.0105726 0.0909631 -0.0705106 
-0.0560467 0.0904135 -0.10551 
-0.0847048 0.0888677 -0.129007 
-0.085076 0.119524 -0.118757 
-0.0857012 0.131942 -0.149987 
0.000430197 0.0780059 -0.0707259 
-0.0288699 0.145155 -0.117629 
-0.0906574 0.00125898 -0.120202 
-0.0851731 0.13079 -0.14269 
-0.0788717 0.0264221 -0.116626 
-0.0819221 0.127948 -0.138509 
-0.0892841 0.121117 -0.105921 
-0.0801727 0.103507 -0.104875 
-0.0673385 0.119831 -0.157129 
-0.0840282 0.120272 -0.130161 
-0.0722933 0.013178 -0.116889 
-0.0389804 0.00506128 -0.122953 
-0.0958669 0.111617 -0.134037 
0.00422775 0.0637065 -0.0585629 
-0.0662931 0.0582698 -0.132196 
-0.0725581 0.12326 -0.144198 
-0.0568986 0.0618662 -0.126872 
-0.0460248 0.133081 -0.108046 
-0.0856452 0.0071732 -0.119776 
-0.102592 0.0689201 -0.131035 
0.00732763 0.0535945 -0.0810575 
-0.0791063 0.11098 -0.145946 
-0.0443136 0.142872 -0.118998 
-0.0525981 0.142947 -0.111467 
-0.0533437 0.00614056 -0.0936722 
-0.00606309 0.00785194 -0.0918748 
-0.0984196 0.0835319 -0.132753 
-0.0822494 0.133196 -0.14773 
-0.101501 0.11897 -0.125777 
-0.0937485 0.121057 -0.113787 
0.00269652 0.0717642 -0.0620585 
-0.0603365 0.138288 -0.109469 
-0.0824589 0.127474 -0.110548 
-0.0782893 0.13008 -0.109015 
-0.030725 0.0961783 -0.0906662 
-0.00957529 0.0371207 -0.108876 
-0.0864289 0.118488 -0.126586 
-0.0651734 0.0742358 -0.12832 
-0.0746408 0.0964209 -0.111604 
-0.0621904 0.0101177 -0.116917 
-0.0219212 0.0611481 -0.119718 
-0.0537047 0.0434363 -0.120264 
-0.0883793 0.118918 -0.102525 
-0.0596788 0.127298 -0.166911 
-0.0309361 0.143626 -0.115372 
-0.0986508 0.120147 -0.124429 
-0.0359843 0.0019156 -0.109614 
-0.0402784 0.0415928 -0.127963 
0.000999101 0.0757983 -0.0632382 
-0.117176 0.107368 -0.123599 
-0.0933201 0.10888 -0.133594 
-0.0809204 0.13031 -0.161807 
0.00809561 0.0573017 -0.0712847 
-0.0954861 0.0497262 -0.134284 
0.00158281 0.0753225 -0.0688153 
0.011696 0.0198183 -0.0551101 
-0.0761518 0.128589 -0.118593 
-0.0465859 0.141643 -0.112688 
-0.0660715 0.133656 -0.108108 
-0.0375467 0.00474206 -0.121608 
-0.107026 0.0731312 -0.126832 
-0.0637414 0.0139559 -0.11564 
-0.0562372 0.0909026 -0.103795 
-0.0391573 0.0572291 -0.126507 
-0.0137864 0.0799769 -0.0965513 
-0.118342 0.0906637 -0.126194 
-0.094359 0.121461 -0.125656 
0.00554121 0.0501457 -0.0844526 
-0.0383639 0.100892 -0.0779385 
-0.0328949 0.136209 -0.1105 
0.00221964 0.0221591 -0.0880838 
-0.0668882 0.1206 -0.168141 
-0.0324536 0.0634259 -0.120276 
-0.0858195 0.127876 -0.136915 
-0.0430189 0.150668 -0.113566 
-0.119278 0.0865777 -0.125472 
-0.0843323 0.121203 -0.105886 
-0.0665275 0.132206 -0.158346 
-0.0525703 0.00630066 -0.0904596 
-0.0799324 0.133866 -0.149138 
-0.0896117 0.125063 -0.14822 
-0.0854601 0.124617 -0.109886 
-0.0857105 0.123902 -0.132341 
-0.0549616 0.0706465 -0.123432 
-0.0104611 0.0597075 -0.110194 
0.00551639 0.0636559 -0.0780302 
-0.0395781 0.146012 -0.119424 
-0.110568 0.120794 -0.110689 
-0.0577056 0.0545772 -0.126576 
-0.0663849 0.119053 -0.106002 
-0.0389229 0.147793 -0.11478 
-0.0911472 0.0577838 -0.136552 
-0.0288705 0.072611 -0.110606 
-0.0739086 0.112587 -0.109158 
-0.0554095 0.133558 -0.171598 
-0.0264608 0.0727924 -0.108812 
-0.0183909 0.0436135 -0.120188 
-0.0443633 0.152441 -0.11285 
-0.0589188 0.0916943 -0.102265 
-0.0590204 0.0933472 -0.0956679 
-0.0704467 0.115729 -0.163671 
-0.117095 0.0638814 -0.118715 
-0.00152812 0.0701817 -0.0894609 
-0.118988 0.057241 -0.114995 
0.00573186 0.0413655 -0.0579537 
-0.0603373 0.143925 -0.172423 
-0.0190859 0.0820818 -0.100854 
-0.115307 0.0543659 -0.120841 
0.00534485 0.0655417 -0.0731589 
-0.0142455 0.0826346 -0.0955125 
-0.0749048 0.128605 -0.118922 
-0.0709609 0.115843 -0.152498 
-0.0711282 0.069461 -0.131476 
-0.0544219 0.126211 -0.115826 
-0.0457425 0.00611601 -0.10675 
-0.0508172 0.136642 -0.119127 
-0.0475294 0.00543701 -0.113064 
-0.0520455 0.150036 -0.111906 
-0.0799407 0.126375 -0.138166 
-0.0452456 0.0569913 -0.122391 
-0.0940201 0.0348461 -0.124697 
-0.0860301 0.0252374 -0.111491 
-0.0539836 0.0971451 -0.084794 
-0.0749993 0.134576 -0.112292 
-0.0621319 0.081359 -0.122839 
-0.00778548 0.0616547 -0.105058 
-0.119959 0.077421 -0.118551 
-0.103923 0.121513 -0.111208 
-0.0779127 0.130763 -0.109335 
-0.047227 0.0640406 -0.121812 
-0.115167 0.0651587 -0.121081 
-0.0654462 0.136649 -0.107692 
-0.00703868 0.0106228 -0.07834 
-0.0810445 0.126251 -0.137384 
-0.0613536 0.139778 -0.108582 
-0.0996793 0.121586 -0.110268 
-0.105511 0.0580974 -0.13015 
-0.050292 0.0710217 -0.121525 
-0.109917 0.0514838 -0.12681 
-0.052606 0.0877079 -0.109467 
-0.102308 0.0995049 -0.132449 
-0.0431605 0.0924726 -0.0992495 
0.00246452 0.0620448 -0.0881152 
0.00214065 0.0250755 -0.0895211 
-0.0891574 0.128693 -0.1456 
-0.120994 0.0921064 -0.123177 
-0.075045 0.116203 -0.117515 
-0.0914102 0.125878 -0.135188 
-0.0214782 0.0623411 -0.118442 
-0.0841416 0.123278 -0.132532 
-0.0174805 0.0726147 -0.101677 
-0.0351736 0.101285 -0.0760084 
-0.0441858 0.00618718 -0.107877 
-0.0217207 0.0757021 -0.103939 
-0.0129282 0.0924961 -0.0691889 
-0.0736692 0.0562491 -0.13339 
-0.0785192 0.125781 -0.106264 
-0.0200796 0.0491224 -0.121921 
-0.0948888 0.121617 -0.104238 
-0.0231292 0.0775908 -0.104966 
0.0136456 0.0238978 -0.058709 
-0.0579706 0.00568745 -0.095374 
-0.0883115 0.11964 -0.118532 
-0.0673129 0.13876 -0.172472 
-0.0117138 0.0910053 -0.0654374 
-0.0544835 0.0963566 -0.0876448 
-0.0717077 0.136112 -0.116157 
-0.0550499 0.0891842 -0.108166 
-0.121876 0.083965 -0.122301 
-0.100814 0.0716069 -0.131139 
-0.0272001 0.100204 -0.0745018 
-0.0369515 0.0136719 -0.118965 
-0.090711 0.0102826 -0.111187 
-0.0284981 0.0937921 -0.0933501 
-0.0632093 0.0931464 -0.107852 
-0.0685647 0.138824 -0.110543 
-0.0744526 0.115707 -0.142454 
-0.0570432 0.0216516 -0.112229 
-0.0654096 0.124004 -0.11883 
-0.0378412 0.06009 -0.124573 
-0.0280436 0.00394658 -0.10131 
-0.116612 0.0665852 -0.118495 
0.00542083 0.0470024 -0.0573866 
-0.0644823 0.136775 -0.164217 
0.00229464 0.0705048 -0.0599459 
-0.0219936 0.0745893 -0.104796 
-0.0445255 0.154011 -0.11449 
-0.0127976 0.0846675 -0.092223 
-0.0254587 0.00584389 -0.109922 
-0.0735115 0.116974 -0.143458 
-0.0264853 0.0889362 -0.0977855 
-0.056071 0.146799 -0.1142 
-0.0657973 0.00753411 -0.117939 
-0.03 0.13765 -0.114641 
-0.00676363 0.0202666 -0.101869 
-0.000450114 0.0617943 -0.0923998 
-0.0110953 0.0155431 -0.101912 
-0.085198 0.103533 -0.128167 
-0.0544055 0.122992 -0.110388 
-0.0539813 0.0098543 -0.123707 
-0.0628463 0.0931357 -0.0983586 
-0.0373325 0.0813015 -0.110147 
-0.0570238 0.122958 -0.104955 
-0.00471101 0.0142108 -0.075713 
-0.0144855 0.0641437 -0.110703 
-0.107311 0.0354275 -0.112913 
-0.0606076 0.131688 -0.119922 
-0.0217049 0.0731514 -0.105113 
-0.0478731 0.0279145 -0.115712 
-0.0104371 0.0909834 -0.0747791 
-0.0684202 0.0949552 -0.105531 
-0.0625577 0.0456337 -0.127166 
-0.108364 0.0905989 -0.132919 
-0.0903534 0.12576 -0.146089 
-0.0396777 0.143379 -0.113454 
-0.107456 0.0487513 -0.127556 
-0.124462 0.0894601 -0.119371 
-0.106708 0.0662677 -0.128791 
-0.0591602 0.136756 -0.168008 
-0.00925532 0.0888323 -0.0644395 
-0.0184243 0.0961793 -0.0697397 
-0.0464739 0.0988979 -0.0839911 
-0.0112942 0.0596514 -0.110738 
-0.00317798 0.0793055 -0.0830037 
-0.073985 0.135809 -0.15681 
0.00223194 0.0321494 -0.0918533 
-0.0936011 0.000149451 -0.105285 
-0.00968468 0.041384 -0.111139 
0.00476557 0.0284724 -0.0737198 
0.00818771 0.054178 -0.0746851 
-0.0120357 0.0595844 -0.111454 
-0.0660664 0.0539549 -0.132032 
-0.0550846 0.132598 -0.10941 
-0.0652857 0.054012 -0.131391 
-0.0174728 0.0465089 -0.120128 
-0.0824326 0.0163587 -0.101142 
-0.00219611 0.0810649 -0.0653694 
-0.0395078 0.140476 -0.112383 
-0.0907774 0.0509608 -0.136134 
-0.0944412 0.0674206 -0.134093 
-0.0914368 0.122373 -0.144564 
-0.0472162 0.090978 -0.102625 
-0.0406545 0.0486818 -0.128365 
-0.122954 0.0949703 -0.119773 
-0.0519946 0.0651195 -0.123766 
0.00467068 0.0684271 -0.0701449 
-0.0611153 0.0557725 -0.128826 
-0.0718554 0.127701 -0.164353 
-0.117468 0.0920266 -0.126861 
-0.0571754 0.00714254 -0.123223 
0.00448628 0.0606154 -0.0847537 
-0.0380808 0.00666389 -0.104753 
-0.10839 0.0864947 -0.132797 
-0.0865845 0.116688 -0.120833 
-0.0510329 0.133703 -0.118389 
-0.0806163 0.125384 -0.136835 
-0.00199326 0.0798707 -0.0628648 
-0.00525145 0.0752366 -0.0889606 
-0.0764151 0.0976072 -0.104645 
-0.0757732 0.000338547 -0.102032 
-0.0793377 0.0834192 -0.127526 
-0.0206778 0.0448661 -0.122365 
-0.0705372 0.00759453 -0.119159 
-0.0327671 0.0411306 -0.129029 
-0.0615349 0.124086 -0.165635 
-0.119437 0.108698 -0.1227 
-0.079419 0.11263 -0.135039 
-0.00691018 0.0415733 -0.108036 
-0.121856 0.103342 -0.11817 
0.00129946 0.0225073 -0.0721592 
-0.0704386 0.140078 -0.165446 
-0.06839 0.143109 -0.169441 
-0.0573279 0.142227 -0.174205 
-0.0437463 0.0904644 -0.101936 
-0.0831128 0.0340563 -0.126716 
-0.0279683 0.0957008 -0.0906056 
-0.0727238 0.12933 -0.147994 
-0.0928597 0.072226 -0.132922 
-0.0719354 0.095539 -0.101056 
-0.0836066 0.106609 -0.125595 
-0.07441 0.0136044 -0.116553 
-0.0327896 0.101228 -0.0751417 
-0.0564873 0.122579 -0.105634 
0.000328915 0.0768131 -0.0671867 
-0.0291118 0.00993558 -0.11401 
-0.112925 0.106001 -0.125617 
-0.0453187 0.0912283 -0.101611 
-0.114703 0.0517146 -0.119207 
-0.0757618 0.118698 -0.139004 
-0.0738003 0.0163527 -0.116242 
-0.0831409 0.028094 -0.120333 
-0.0546418 0.129083 -0.117726 
-0.0620982 0.133321 -0.172634 
0.0075513 0.0616683 -0.0693946 
-0.0740277 0.119356 -0.160728 
0.00523469 0.0388555 -0.0832784 
-0.106779 0.107395 -0.128923 
-0.0618291 0.0672663 -0.129069 
-0.0616454 0.143562 -0.110376 
-0.0684282 0.13217 -0.156283 
-0.0581485 0.146126 -0.110182 
-0.0315608 0.0961821 -0.0912624 
-0.0812494 0.114232 -0.130528 
-0.083587 0.13344 -0.149402 
-0.0101045 0.0701546 -0.0980691 
-0.0494235 0.151754 -0.112495 
-0.0785563 0.0645443 -0.1341 
-0.0494405 0.0897574 -0.105001 
-0.0534775 0.125217 -0.113953 
-0.0779656 0.0874407 -0.12447 
-0.0628678 0.0876776 -0.119285 
-0.073439 0.13537 -0.156101 
-0.044184 0.0998201 -0.0810484 
-0.0922282 0.125417 -0.136229 
-0.0509975 0.0958574 -0.0920258 
-0.0158328 0.0944997 -0.0685544 
-0.0420893 0.0807238 -0.112745 
-0.0787688 0.115662 -0.134909 
0.00337232 0.0715848 -0.065182 
-0.0633838 0.0841183 -0.122417 
-0.0581832 0.133864 -0.110396 
-0.0318985 0.00803081 -0.0840172 
0.00471123 0.0667321 -0.0736945 
-0.082262 0.11706 -0.104435 
-0.115592 0.0734133 -0.116874 
-0.0622683 0.0470747 -0.127806 
-0.0476271 0.0668787 -0.121497 
-0.0175618 0.00927878 -0.104059 
-0.0169367 0.0611229 -0.116068 
-0.0819274 0.10958 -0.104924 
-0.0296318 0.00372795 -0.102691 
-0.0457927 0.146115 -0.113111 
-0.091671 0.0766915 -0.131558 
-0.0655561 0.132976 -0.119776 
-0.0552695 0.135438 -0.110988 
0.00761604 0.0429981 -0.0724318 
-0.0601076 0.144313 -0.109339 
-0.0773548 0.0982946 -0.103552 
-0.10499 0.0433426 -0.125835 
-0.0575633 0.121425 -0.107779 
-0.0026514 0.0262526 -0.0997388 
-0.0552902 0.14754 -0.109919 
-0.000615221 0.0553392 -0.0965131 
-0.0647075 0.0627145 -0.131501 
-0.0986023 0.117251 -0.131193 
-0.0345872 0.0883864 -0.102768 
-0.0145267 0.0939762 -0.0712662 
-0.0455083 0.140202 -0.11244 
-0.0125446 0.04402 -0.114459 
-0.00254345 0.0156085 -0.0791621 
-0.100367 0.12156 -0.111136 
-0.070836 0.00027227 -0.101905 
-0.0195923 0.0044671 -0.082385 
-0.0107568 0.00971857 -0.0979649 
-0.0984522 0.113006 -0.132169 
-0.0729924 0.116239 -0.14518 
-0.10667 0.0567769 -0.128504 
-0.0598354 0.00296362 -0.109496 
-0.118495 0.0852177 -0.126115 
-0.00141773 0.079731 -0.06484 
-0.0626736 0.140553 -0.174626 
-0.0459053 0.131737 -0.106427 
-0.102167 0.11158 -0.130848 
-0.0565342 0.135052 -0.174408 
-0.0331516 0.149073 -0.12066 
-0.00641476 0.00911962 -0.0706362 
-0.0175891 0.0643898 -0.113284 
-0.0672843 0.0946592 -0.099595 
-0.0106785 0.0271251 -0.107787 
-0.0580375 0.132068 -0.168339 
-0.0616088 0.138282 -0.167201 
-0.0155832 0.053667 -0.118353 
-0.103856 0.0347752 -0.116796 
-0.0594956 0.13982 -0.169467 
-0.0785648 0.12296 -0.105753 
-0.055835 0.0950623 -0.0915841 
-0.11823 0.0976402 -0.123976 
-0.1102 0.0732032 -0.12413 
-0.091451 0.125959 -0.142798 
-0.0815718 0.110977 -0.13099 
-0.0161753 0.0437661 -0.118074 
-0.11084 0.101747 -0.128913 
-0.0857914 0.0553023 -0.136535 
-0.051809 0.0435854 -0.119538 
-0.059853 0.00164236 -0.122361 
-0.000394464 0.05184 -0.0968805 
-0.122654 0.0853255 -0.121651 
-0.0795811 0.127637 -0.158605 
-0.061678 0.0922941 -0.108126 
-0.122487 0.090766 -0.121711 
-0.0793599 0.107137 -0.117114 
-0.0326589 0.00542204 -0.117309 
-0.0818681 0.106554 -0.103649 
-0.0675746 0.122038 -0.16741 
-0.0219452 0.0856114 -0.100071 
-0.0665118 0.0945256 -0.103102 
-0.0446322 0.000362758 -0.127333 
-0.00492442 0.0101455 -0.085263 
-0.068321 0.1445 -0.17151 
-0.0837836 0.103641 -0.126695 
-0.0150678 0.0944685 -0.0719472 
-0.0778355 0.0602836 -0.134811 
-0.0051847 0.0091037 -0.0688057 
0.0028687 0.0729256 -0.06552 
-0.0666633 0.14055 -0.112452 
-0.0658598 0.140943 -0.111435 
-0.077019 0.123606 -0.158005 
-0.0275606 0.0996326 -0.0815055 
-0.0849674 0.0932474 -0.129141 
-0.012749 0.0920764 -0.0667886 
-0.0832096 0.127142 -0.114809 
-0.0502009 0.0963469 -0.0910021 
-0.0660276 0.0741658 -0.128831 
-0.104711 0.120917 -0.116586 
-0.0617173 0.0927324 -0.103656 
-0.0761029 0.11397 -0.116854 
-0.0533787 0.00595916 -0.0986871 
0.00694529 0.0630866 -0.0686198 
-0.0889505 0.12484 -0.132068 
-0.0549093 0.00586903 -0.0975814 
0.0152538 0.0377405 -0.0538841 
-0.0651924 0.136698 -0.107786 
-0.0638449 0.0441274 -0.126821 
-0.117948 0.0639348 -0.116897 
-0.109249 0.0851437 -0.132124 
-0.0712832 0.0954565 -0.10022 
-0.0208862 0.0377792 -0.121144 
-0.0369701 0.154375 -0.117765 
-0.0847164 0.013275 -0.10552 
-0.0814499 0.105054 -0.103348 
-0.0477912 0.0977188 -0.0878965 
-0.0189941 0.0695876 -0.103727 
-0.0921573 0.0307267 -0.121075 
-0.0619829 0.0927033 -0.106249 
0.00118994 0.0693272 -0.0838283 
-0.101422 0.121641 -0.110264 
-0.0407512 0.144809 -0.113729 
-0.0904859 0.0767767 -0.131581 
-0.0588898 0.129635 -0.107397 
-0.0205055 0.034965 -0.119511 
-0.0682692 0.139164 -0.164879 
-0.067423 0.12056 -0.105195 
-0.022288 0.0517952 -0.12439 
-0.0490422 0.142667 -0.118885 
-0.0865135 0.130871 -0.14441 
-0.00347718 0.0653282 -0.0943128 
-0.0838196 0.0569034 -0.136086 
-0.0802034 0.124433 -0.136305 
-0.0610805 0.144196 -0.111874 
0.00535922 0.0332569 -0.0828637 
-0.0778294 0.131781 -0.146424 
-0.0421289 0.0360975 -0.124137 
-0.0937707 0.121144 -0.124906 
-0.117039 0.0865326 -0.127622 
-0.0602509 0.144451 -0.174101 
-0.00255071 0.0825143 -0.0691292 
-0.104669 0.119189 -0.123117 
0.00714276 0.0548734 -0.065919 
-0.0569095 0.0446361 -0.122844 
-0.0803624 0.114162 -0.132332 
-0.0724751 0.132952 -0.152686 
-0.0613895 0.140579 -0.174861 
-0.0666995 0.138113 -0.107617 
-0.0564577 0.00582689 -0.0939511 
-0.0030625 0.0164038 -0.0742221 
-0.0943575 0.00110473 -0.104499 
-0.00675122 0.0444176 -0.108627 
-0.0834478 0.0111082 -0.116108 
-0.0854543 0.0234968 -0.103456 
-0.0272399 0.0867411 -0.100344 
-0.0537524 0.0783209 -0.120312 
-0.0467244 0.144602 -0.112877 
-0.0816308 0.0326957 -0.125142 
-0.0738192 0.0947906 -0.0944561 
-0.1109 0.082468 -0.130726 
0.00548534 0.059469 -0.0600394 
-0.0537094 0.0750689 -0.122184 
-0.112045 0.0436439 -0.1173 
-0.0822691 0.123655 -0.15304 
-0.0639518 0.141151 -0.10856 
-0.0895144 -0.00107717 -0.114745 
-0.0861883 -0.000244929 -0.102015 
0.00229356 0.0718059 -0.0611438 
-0.0537287 0.000363573 -0.118166 
-0.0919327 0.121155 -0.113705 
-0.086684 -0.0011991 -0.119338 
-0.0653819 0.0525652 -0.131059 
-0.0726651 0.116315 -0.16277 
-0.0180356 0.0953379 -0.0805488 
-0.00184989 0.0691334 -0.0907944 
-0.111423 0.0462804 -0.120518 
-0.00321018 0.0157548 -0.0760604 
-0.10164 0.0688882 -0.131599 
-0.0631735 0.135203 -0.109087 
-0.120269 0.0825962 -0.123611 
-0.0331387 0.101019 -0.0777539 
-0.0681512 0.124619 -0.152128 
-0.0660468 0.139105 -0.117193 
-0.022227 0.0362696 -0.12258 
-0.0565389 0.139055 -0.174641 
-0.118239 0.0798933 -0.124618 
-0.0625666 0.140677 -0.117595 
-0.0689287 0.12927 -0.152695 
-0.0819117 0.112853 -0.119303 
-0.0998069 0.101099 -0.132789 
-0.0398763 0.129758 -0.107491 
-0.0803294 0.0983868 -0.0983801 
-0.0938315 0.121546 -0.1051 
-0.0107245 0.00828458 -0.0978488 
0.00613484 0.0423405 -0.0627307 
-0.050621 0.142984 -0.112162 
-0.0904679 0.121058 -0.105235 
-0.103827 0.0366058 -0.120217 
-0.0764418 0.0984311 -0.106935 
0.00843175 0.0207272 -0.0656111 
-0.0634448 0.129061 -0.161058 
-0.0790163 0.0457751 -0.134879 
-0.0744118 0.115369 -0.142808 
-0.0952409 0.0456782 -0.132836 
0.00692685 0.0520422 -0.0812097 
-0.0274923 0.0741595 -0.109216 
-0.0403394 0.0732114 -0.116907 
-0.118404 0.0786068 -0.123498 
-0.106882 0.0757538 -0.12811 
-0.0189692 0.0623599 -0.11665 
-0.0435889 0.141758 -0.112837 
-0.065998 0.0923374 -0.115206 
-0.0874662 0.0740936 -0.132374 
0.00209481 0.0590999 -0.0903948 
0.012369 0.037447 -0.0581837 
-0.0692083 0.0946775 -0.0953167 
-0.0694401 0.124701 -0.149368 
-0.0802438 0.0775118 -0.131089 
-0.0523199 0.123897 -0.109043 
-0.0256118 0.00839088 -0.0885545 
-0.0174938 0.0067102 -0.0885342 
-0.115738 0.0693088 -0.118034 
-0.101571 0.107403 -0.131537 
-0.0215277 0.00478781 -0.0821652 
-0.0602637 0.134859 -0.173913 
-0.00225709 0.0390437 -0.101926 
-0.085538 0.0524232 -0.136599 
0.00192999 0.0217142 -0.0704989 
-0.098717 0.0592683 -0.134154 
-0.0669712 0.0467429 -0.13159 
-0.0757818 0.0734592 -0.132068 
-0.124601 0.0922514 -0.118359 
-0.0497063 0.0725024 -0.120736 
-0.001739 0.0660737 -0.0915949 
-0.0790799 0.0922363 -0.123376 
-0.10184 0.060713 -0.132703 
-0.0776592 0.124871 -0.118911 
-0.0715654 0.12479 -0.145976 
-0.0418596 0.154599 -0.114836 
-0.0283401 0.145058 -0.119336 
0.00695261 0.059162 -0.0649967 
-0.0376994 0.0987338 -0.0880948 
-0.0846839 0.0243211 -0.108881 
-0.0823301 0.0253686 -0.112926 
-0.00236042 0.0126003 -0.0700613 
0.00447293 0.0681066 -0.0738208 
-0.108976 0.119552 -0.119682 
-0.0129608 0.0653977 -0.106265 
-0.0972021 0.120585 -0.122582 
-0.0760897 0.0517279 -0.134648 
-0.0784819 0.0659986 -0.134397 
-0.0814786 0.127113 -0.137937 
-0.0448206 0.13265 -0.114984 
-0.0873426 0.0653382 -0.135243 
-0.0623636 0.143326 -0.111353 
-0.0712467 0.0564403 -0.133522 
-0.101718 0.119659 -0.123846 
-0.0670037 0.135347 -0.161092 
-0.0168378 0.00570255 -0.0891925 
-0.0818092 0.122551 -0.118389 
-0.0785881 0.115227 -0.156379 
-0.0111553 0.00556932 -0.0695951 
-0.0568651 0.130413 -0.169995 
-0.0940284 0.12342 -0.136872 
-0.0829969 0.0140188 -0.110055 
-0.00425602 0.0133974 -0.0825756 
-0.0603306 0.044355 -0.124897 
-0.0745224 0.135322 -0.155289 
-0.021829 0.0685274 -0.106854 
-0.00833401 0.0883259 -0.0654448 
-0.0816071 -0.00109552 -0.119281 
-0.0723537 0.095512 -0.0993393 
-0.0190012 0.00774865 -0.105356 
0.00404267 0.0701608 -0.0658982 
-0.0929214 0.0926701 -0.13331 
-0.0637325 0.0526836 -0.129929 
-0.0459568 0.127343 -0.109398 
-0.00279296 0.0811896 -0.0633976 
-0.096351 0.117155 -0.134498 
-0.0815535 0.0179685 -0.0983806 
-0.0589933 0.130969 -0.108794 
-0.0694176 0.120467 -0.105075 
-0.0947509 0.121678 -0.108467 
-0.0212478 0.0035574 -0.0963448 
-0.0469539 0.0737909 -0.11943 
-0.121251 0.0879829 -0.123222 
0.00631285 0.0362791 -0.0671755 
-0.0326205 0.00800271 -0.0847425 
-0.0541987 0.148846 -0.111696 
-0.113159 0.066441 -0.123396 
-0.0572893 0.142341 -0.117879 
-0.035775 0.0069086 -0.102648 
-0.0463399 0.0583597 -0.122572 
-0.0836261 0.124043 -0.107349 
-0.065301 0.0569021 -0.131711 
-0.0843088 0.132436 -0.157302 
-0.0461245 0.134418 -0.109335 
-0.0683778 0.140099 -0.173147 
-0.0277648 0.00522688 -0.100041 
-0.0963961 0.0647176 -0.134092 
-0.0153582 0.0939371 -0.0792242 
-0.0807805 0.115764 -0.131452 
-0.0903085 0.103169 -0.13117 
-0.122799 0.0813703 -0.119264 
-0.0318346 0.00399552 -0.0760042 
-0.0561912 0.076809 -0.122528 
-0.0436812 0.0249497 -0.117706 
0.0115025 0.0280718 -0.0638767 
-0.0691517 0.0336919 -0.122646 
-0.0968075 0.108898 -0.132184 
-0.0585724 0.12722 -0.168599 
-0.0621042 0.0928367 -0.101903 
-0.0696603 0.137687 -0.116149 
0.0077681 0.0588682 -0.0691896 
-0.0723567 0.0190654 -0.116635 
-0.0533685 0.0678963 -0.123781 
-0.110205 0.120711 -0.112429 
-0.108512 0.118276 -0.12349 
-0.0738294 0.117721 -0.117779 
-0.0372178 0.143169 -0.119077 
-0.0662314 0.0108353 -0.116955 
-0.1237 0.0827184 -0.118685 
-0.0135248 0.0870275 -0.0909894 
-0.032017 0.0907001 -0.0990956 
0.00750447 0.0594914 -0.0775803 
-0.0795488 0.111566 -0.117255 
-0.0349096 0.0052614 -0.119338 
-0.0386798 0.143411 -0.113518 
-0.00845814 0.08941 -0.0744483 
-0.0677794 0.126445 -0.106614 
-0.0676973 0.137368 -0.171516 
-0.0891049 0.0885525 -0.131341 
-0.0244509 0.0684074 -0.108591 
-0.0268193 0.0542587 -0.126907 
-0.0445772 0.0207679 -0.116957 
-0.0243519 0.0417883 -0.125568 
-0.0802667 0.0615304 -0.134801 
0.00108675 0.0707802 -0.0833871 
-0.00813099 0.079578 -0.0894293 
-0.0849974 0.0582599 -0.136246 
-0.0770002 0.128895 -0.143173 
-0.0618035 0.128135 -0.106525 
-0.0895541 0.118925 -0.1239 
-0.0956525 0.00203289 -0.11245 
-0.0291623 0.0657066 -0.115904 
-0.0230895 0.00398851 -0.0774037 
-0.089043 0.0106475 -0.106377 
-0.0106321 0.087235 -0.086699 
-0.0213009 0.0545401 -0.123188 
-0.0839615 0.120997 -0.149294 
0.00454649 0.0288196 -0.0691658 
-0.00325579 0.0807124 -0.0612616 
-0.00149252 0.0319678 -0.0984684 
-0.059521 0.128907 -0.166847 
-0.083567 0.127613 -0.157494 
-0.0567176 0.133605 -0.169949 
-0.0797799 0.11727 -0.133225 
-0.0726334 0.131912 -0.106964 
-0.111332 0.120572 -0.111628 
-0.118015 0.0761179 -0.118484 
-0.052521 0.126828 -0.10282 
-0.109666 0.0718276 -0.12491 
-0.0651914 0.0916046 -0.116156 
-0.0462364 0.0531113 -0.123712 
-0.0711364 0.134586 -0.118063 
-0.0376229 0.101117 -0.0769814 
-0.0910531 0.121372 -0.105984 
-0.0614356 0.0586237 -0.128672 
-0.0190355 0.0336605 -0.117941 
0.0051953 0.0622438 -0.0602938 
-0.0637295 0.142292 -0.1109 
-0.0558361 0.123023 -0.105474 
0.00556968 0.030984 -0.0769377 
-0.0526293 0.149888 -0.112324 
-0.0112059 0.0902826 -0.0812366 
-0.0390983 0.134867 -0.108187 
-0.0756481 0.137059 -0.158966 
0.00174423 0.0660244 -0.0865022 
-0.0522577 0.135532 -0.110962 
-0.103155 0.0702824 -0.130234 
-0.0613269 0.0571953 -0.128672 
-0.00161104 0.0776177 -0.0820745 
-0.0271311 0.0898345 -0.0969614 
-0.0493484 0.137135 -0.11151 
-0.0705584 0.124759 -0.10497 
0.0134416 0.0384633 -0.05618 
-0.00600203 0.0775956 -0.0877065 
-0.0701201 0.136101 -0.117496 
-0.0151895 0.0946255 -0.075013 
-0.0184854 0.0936763 -0.0861163 
-0.0794411 0.0110487 -0.117206 
-0.0636333 0.0783544 -0.124848 
0.0151638 0.025943 -0.0543163 
-0.0564166 0.00600687 -0.0889459 
-0.0704777 0.129074 -0.16592 
-0.087546 0.128875 -0.139159 
-0.0749009 0.127418 -0.10648 
-0.0496327 0.0681821 -0.122246 
-0.121982 0.0992667 -0.116936 
-0.0751899 0.0219408 -0.116081 
-0.0732822 0.124839 -0.143513 
-0.085894 0.121772 -0.11748 
-0.0369613 0.0869617 -0.105014 
-0.0830571 0.125539 -0.108448 
-0.0404708 0.130142 -0.105763 
-0.095389 0.112983 -0.134952 
-0.087407 0.0697257 -0.133843 
-0.0482974 0.000307629 -0.128413 
-0.00232741 0.015634 -0.0724425 
-0.0501286 0.0912626 -0.10255 
-0.0959921 0.0605872 -0.134864 
-0.0219919 0.0292189 -0.120236 
-0.000410201 0.0741479 -0.0840137 
-0.0622653 0.0926487 -0.108839 
-0.0702908 0.0929695 -0.116554 
-0.10452 0.0459749 -0.12684 
-0.0541367 0.0892611 -0.107622 
-0.0622032 0.0940556 -0.0885864 
-0.0727214 0.130427 -0.106704 
-0.0913316 0.124011 -0.130709 
-0.0974786 0.0376978 -0.126902 
-0.0495684 0.0783143 -0.117332 
-0.0231949 0.033389 -0.122606 
-0.109011 0.0595542 -0.127657 
0.00568443 0.0447085 -0.0819642 
-0.0558051 0.0818315 -0.118954 
0.00574434 0.0462636 -0.0807121 
-0.092691 0.120925 -0.114647 
-0.0703515 0.133966 -0.156527 
-0.0979152 0.027325 -0.108708 
-0.0669089 0.0943365 -0.108361 
-0.0587137 0.140428 -0.175186 
-0.0347469 0.0124163 -0.118554 
-0.0584992 0.00862261 -0.120552 
-0.058445 0.0660703 -0.12677 
-0.0443596 0.0988573 -0.085682 
-0.0407302 0.099344 -0.0854028 
-0.0742687 0.0959087 -0.101801 
-0.11716 0.110043 -0.12487 
-0.0718402 -0.00036262 -0.112541 
-0.0764635 0.131674 -0.163904 
-0.0956594 0.0715581 -0.132622 
-0.0522001 0.139552 -0.119167 
-0.113302 0.12003 -0.111845 
-0.0257299 0.0911505 -0.0952431 
-0.0419383 0.130164 -0.104879 
-0.0283856 0.00793522 -0.0828541 
-0.0931476 0.120425 -0.117426 
-0.000220852 0.0171777 -0.0812585 
0.000187764 0.0782706 -0.0766363 
-0.0875023 0.122782 -0.130218 
-0.0679062 0.094855 -0.100392 
-0.0585744 0.0244232 -0.113917 
-0.0513203 0.03362 -0.115788 
-0.076036 0.139767 -0.172051 
-0.0565245 0.00428452 -0.125054 
-0.0836107 0.119628 -0.149032 
-0.0465226 0.0597843 -0.122446 
-0.0918675 -0.000332996 -0.105384 
-0.116001 0.117722 -0.119527 
-0.125295 0.0909001 -0.117562 
-0.0190188 0.0251294 -0.115028 
-0.113553 0.108732 -0.12609 
-0.0256399 0.0218066 -0.119188 
-0.107967 0.0731275 -0.126245 
-0.0644105 0.134685 -0.171739 
-0.0146598 0.00387008 -0.0898514 
-0.0762015 0.114211 -0.106187 
-0.0838366 0.0874681 -0.128335 
-0.0690788 0.00257817 -0.0952827 
-0.0594874 0.0501572 -0.126962 
-0.0132266 0.0671965 -0.101372 
-0.0923104 0.00267703 -0.118377 
-0.0707211 0.127814 -0.149063 
-0.0295334 0.0171505 -0.118078 
-0.00724242 0.00571523 -0.0920625 
-0.0849325 0.00717624 -0.120538 
-0.109941 0.070458 -0.125053 
-0.10922 0.0704418 -0.125787 
-0.0761027 0.0705585 -0.133138 
-0.110637 0.0704733 -0.124296 
-0.0487124 0.0209574 -0.112459 
-0.114359 0.0692293 -0.120701 
-0.0719987 0.113765 -0.158506 
-0.0545767 0.127266 -0.102597 
-0.0167074 0.0550047 -0.118578 
-0.0409666 0.0965294 -0.0933308 
0.00643233 0.0523534 -0.0615902 
-0.0370023 0.100621 -0.0805717 
-0.107638 0.0810967 -0.131078 
-0.0601142 0.0185815 -0.114511 
-0.0782571 0.015176 -0.114257 
-0.0928486 0.00120876 -0.118395 
0.00234451 0.0158952 -0.0685242 
-0.101231 0.120326 -0.121031 
-0.0313054 0.0659612 -0.11526 
-0.0312515 0.0714732 -0.112574 
-0.0843236 0.0034568 -0.122907 
-0.109739 0.0382266 -0.110963 
-0.12127 0.080009 -0.120625 
-0.0795891 0.135706 -0.15529 
-0.0417534 0.130529 -0.104923 
-0.0247346 0.0101977 -0.109704 
-0.0825058 0.101666 -0.0989839 
-0.0257852 0.00196878 -0.107065 
-0.108395 0.115564 -0.127699 
-0.107369 0.0892127 -0.13343 
-0.0795722 0.130098 -0.114993 
-0.0677672 0.0948738 -0.104694 
-0.082326 0.124958 -0.154326 
-0.0180791 0.0323291 -0.117424 
-0.0751019 0.0950558 -0.0960834 
-0.0492579 0.135708 -0.110769 
-0.0932158 0.121114 -0.140909 
0.00366188 0.0435985 -0.0910693 
0.0107067 0.0280177 -0.0644606 
-0.0821966 0.112708 -0.150278 
-0.110862 0.0410647 -0.114313 
-0.0748318 0.133107 -0.116825 
-0.0490064 0.128065 -0.113546 
-0.0433585 0.0715274 -0.119447 
-0.11128 0.0705005 -0.123523 
-0.110299 0.0649974 -0.126275 
-0.113805 0.0691949 -0.121528 
-0.0822352 0.12129 -0.105474 
-0.0989893 0.0277634 -0.107811 
-0.0397066 0.016262 -0.118593 
-0.0121194 0.0616633 -0.110726 
0.00150235 0.0732087 -0.0604998 
-0.113051 0.0989296 -0.129036 
-0.0562009 0.134881 -0.119722 
-0.0884295 0.124265 -0.131422 
-0.0797201 0.00245183 -0.122644 
-0.00333731 0.0115727 -0.0878377 
-0.0558464 0.127565 -0.117486 
-0.0879593 0.12354 -0.130807 
-0.0320278 0.147947 -0.116869 
-0.0784465 0.106229 -0.112105 
-0.0665998 0.0712667 -0.12952 
-0.0333646 0.134079 -0.112197 
-0.119199 0.104587 -0.122439 
-0.0355738 0.0882274 -0.103249 
-0.0592085 0.143549 -0.174886 
-0.0877676 0.117902 -0.120823 
-0.0631149 0.144178 -0.171506 
0.0130207 0.0396429 -0.0555137 
-0.0196909 0.0322066 -0.118608 
-0.063541 0.0934456 -0.106009 
0.0164075 0.0332357 -0.0526294 
-0.104434 0.0919652 -0.134158 
-0.0439233 0.000834491 -0.116502 
-0.0526318 0.0057276 -0.105531 
-0.0611786 0.0928104 -0.0984379 
-0.0388084 0.0704148 -0.117131 
-0.0890825 0.0914847 -0.131761 
-0.0781393 0.124944 -0.138259 
-0.0061469 0.0129986 -0.0963062 
-0.0212866 0.0979791 -0.0734326 
-0.0322857 0.0657352 -0.115691 
-0.06291 0.140293 -0.174466 
-0.00177672 0.0376382 -0.100593 
-0.00565573 0.0102508 -0.0833582 
-0.0439916 0.00170128 -0.115051 
-0.0553973 0.138046 -0.17423 
-0.107745 0.0704074 -0.127097 
-0.0986062 0.0430907 -0.13015 
-0.0854115 -0.000147454 -0.101319 
-0.096101 0.112958 -0.134366 
-0.117525 0.0639101 -0.117804 
0.00458913 0.0591653 -0.085094 
-0.0869246 0.025729 -0.113265 
-0.0836661 0.0962799 -0.127832 
-0.0314896 0.0851329 -0.103672 
-0.0954074 0.107533 -0.132428 
-0.0788406 0.137509 -0.163158 
-0.0521102 0.12438 -0.105047 
-0.0125984 0.087811 -0.0888933 
-0.0932072 0.118371 -0.139654 
-0.112698 0.103198 -0.126583 
-0.095959 0.121597 -0.129974 
-0.0573543 0.0317303 -0.116766 
0.002047 0.023715 -0.0742371 
-0.0517986 0.0953964 -0.0930575 
-0.0457385 0.132591 -0.1154 
-0.0893527 0.0101507 -0.115089 
-0.068409 0.117206 -0.115611 
-0.0772895 0.115198 -0.157916 
-0.106787 0.0703618 -0.127784 
-0.0263014 0.0115276 -0.111139 
-0.0333266 0.0722673 -0.112883 
0.005056 0.0660494 -0.0651619 
-0.0088541 0.0048413 -0.0851746 
-0.063922 0.0168475 -0.115745 
-0.0965179 0.121308 -0.112878 
0.00993566 0.0193148 -0.0622122 
-0.00932761 0.0901437 -0.073345 
-0.0589503 0.145541 -0.111323 
-0.0434578 0.131297 -0.113219 
-0.00840807 0.0244498 -0.105436 
-0.00621404 0.00668505 -0.0894713 
-0.0656154 0.124398 -0.157592 
0.0123035 0.0223975 -0.0607682 
-0.0960782 0.120714 -0.123378 
-0.00017667 0.0782107 -0.0675781 
-0.0711851 0.134917 -0.107717 
-0.0857058 0.13009 -0.141169 
-0.0441386 0.0856294 -0.108249 
-0.11002 0.0622197 -0.127163 
-0.0822701 0.109685 -0.141465 
-0.0869648 0.128591 -0.138393 
-0.0949604 0.12164 -0.126487 
-0.0851154 0.129759 -0.140405 
-0.0466044 0.00613441 -0.102366 
-0.117821 0.0598897 -0.116683 
-0.0840497 0.128951 -0.139057 
-0.000639284 0.0686496 -0.0892552 
-0.0870805 0.0639151 -0.135525 
-0.0730448 0.134579 -0.11692 
-0.0481609 0.134383 -0.109663 
-0.0800273 0.131641 -0.163655 
-0.0638208 0.12802 -0.106928 
-0.115672 0.118948 -0.11477 
-0.0321423 0.136193 -0.111193 
-0.011881 0.0911239 -0.0804075 
-0.0629483 0.00597757 -0.118453 
0.00802017 0.058585 -0.0725293 
-0.0379001 0.154523 -0.116915 
-0.0812383 0.111102 -0.105736 
-0.0942864 0.1029 -0.132342 
-0.0911554 0.118358 -0.141908 
-0.069916 0.13952 -0.164788 
-0.0831923 0.0497138 -0.13625 
-0.0563673 0.147247 -0.11237 
-0.0815448 0.122471 -0.133612 
-0.0533827 0.0520259 -0.12373 
-0.0431483 0.0804884 -0.113173 
-0.0685527 0.136149 -0.160834 
-0.0542708 0.0938186 -0.0962463 
-0.100068 0.117275 -0.129752 
-0.0707601 0.0945092 -0.0928014 
-0.00297127 0.0626723 -0.0953988 
-0.107927 0.0635706 -0.128273 
-0.0871281 0.120437 -0.105408 
-0.0689367 0.137332 -0.171098 
0.00876508 0.0222396 -0.0663671 
-0.0678759 0.138949 -0.109625 
-0.0568211 0.140237 -0.118991 
-0.119015 0.0920519 -0.125473 
-0.0402245 0.0616186 -0.121392 
-0.0549638 0.00573693 -0.100066 
-0.0756137 0.133123 -0.150144 
-0.0392199 0.0999165 -0.0834452 
-0.10844 0.117212 -0.125592 
-0.0779694 0.0234517 -0.114326 
-0.0041678 0.0833796 -0.0645808 
-0.0747168 0.0691989 -0.133281 
-0.0641547 0.0936755 -0.106813 
-0.0545552 0.142907 -0.1106 
0.000552375 0.0572341 -0.0930519 
-0.0535226 0.0151487 -0.115138 
-0.0761282 0.127105 -0.142079 
-0.0396302 0.00742953 -0.0834712 
-0.0765621 0.113223 -0.116573 
-0.03801 0.13351 -0.107151 
-0.0772048 0.112477 -0.140247 
-0.0310618 0.0553545 -0.127814 
-0.0841707 0.127543 -0.137008 
-0.0396066 0.0067463 -0.101123 
-0.0103543 0.0601352 -0.109962 
-0.0860004 0.131463 -0.145902 
-0.0574201 0.0921621 -0.100289 
0.00383682 0.0720779 -0.0730737 
-0.0197144 0.0236914 -0.115645 
-0.0296773 0.139157 -0.114502 
-0.114145 0.0556562 -0.122512 
-0.0798505 0.114184 -0.133175 
-0.0127587 0.0738468 -0.0967922 
-0.0662212 0.0524983 -0.131599 
-0.0595482 0.0114993 -0.117756 
-0.0546328 0.0577112 -0.12622 
0.0059936 0.0482923 -0.0594188 
-0.074309 0.112905 -0.15004 
-0.108935 0.0676895 -0.126671 
-0.0214549 0.0940855 -0.0887956 
-0.0748631 0.115419 -0.141905 
-0.0808661 0.134191 -0.165546 
-0.0852328 0.106583 -0.0998564 
-0.0925781 0.122441 -0.127861 
-0.06027 0.0912706 -0.109713 
-0.0632138 0.142856 -0.112393 
-0.0628163 0.0155054 -0.115436 
0.00462283 0.0581304 -0.0581602 
-0.118301 0.111464 -0.124426 
-0.100741 0.0620494 -0.133227 
-0.123976 0.0867063 -0.120162 
-0.0892427 0.00953001 -0.103164 
-0.0500142 0.124789 -0.106644 
-0.0647636 0.136071 -0.172004 
0.00339117 0.0727074 -0.068728 
-0.0918773 0.119746 -0.120245 
-0.036545 0.00759572 -0.0856949 
-0.00870416 0.0645831 -0.102108 
-0.0274862 0.100232 -0.0770435 
-0.0510184 0.00662091 -0.0840312 
0.00385297 0.071352 -0.0683936 
-0.0894644 0.121771 -0.108389 
-0.0422722 0.0986601 -0.0873978 
-0.0362642 0.100836 -0.0796091 
-0.113975 0.0570102 -0.122439 
-0.0422863 0.0103217 -0.124242 
-0.0627537 0.12909 -0.171708 
-0.0682851 0.118585 -0.116703 
-0.0993557 0.0281752 -0.108698 
-0.0667731 0.13274 -0.158622 
